2.60143, 4.0018, 4.7374
0.874568, 1.49882, 1.19512
-0.90518, 0.372511, -5.87945
-3.47144, 1.24682, -1.94822
-1.15616, 2.00996, -5.20901
-3.16752, 4.32924, -2.33565
3.4768, -2.57163, 12.3912
-0.588755, 1.52263, 0.593075
0.888239, -4.73525, -3.91796
-1.15015, 1.18256, -2.91829
1.44912, -1.19945, 5.35439
-0.667739, -3.55524, 3.33721
-1.16305, -2.08899, 4.58692
-5.86914, 1.95162, 4.82205
1.87896, -0.0835953, -1.44692
1.53799, -0.738725, -5.54014
0.60638, 3.30051, -3.12326
2.77095, 3.66798, -3.62723
1.86544, 3.79572, 8.11216
-2.08436, 2.0296, -3.91983
-0.127444, -0.779565, -0.865899
-3.56701, -1.68707, -6.30843
-2.44361, -2.16422, -4.10759
-2.61194, -2.07816, 2.85764
4.80453, -2.59956, 4.18452
-1.2398, 0.670717, -2.32347
-0.860803, 1.62246, -2.44111
1.83121, -2.06892, 2.74863
0.633315, 3.09401, 6.49508
-3.64527, -0.449606, -4.30752
2.8047, 0.42245, 4.35876
0.0187739, -0.312782, -2.44981
-0.402453, 0.47791, -1.85907
0.37457, 4.63379, 2.74233
0.571466, -2.05379, 4.91696
-1.17594, 2.56658, -2.95876
-4.14016, 4.93007, -5.34147
-4.54105, 5.70793, 4.40868
-0.0415485, -3.03082, -3.16576
-1.59463, 2.24213, 2.10674
3.10696, 1.22128, -5.13871
3.68747, 2.24146, 5.5148
-0.794031, -2.61917, -1.60728
1.95261, 0.141091, -2.63503
-1.70244, -1.44746, -0.818189
2.48327, -4.64901, 2.51494
-0.246512, -1.81257, -3.14834
4.96629, -1.58563, 12.1606
-1.88284, -2.47146, -2.58164
-2.55479, 1.25042, 6.81367
-1.05428, 1.49303, 3.36111
-0.713919, -3.54388, -3.18614
1.46162, 0.681966, -6.26714
4.93885, -0.264379, -3.76617
2.38783, 4.03462, -2.6899
3.20946, 2.22383, -5.9658
-1.77205, -0.329874, -4.76229
-0.549036, 4.74503, 2.89714
0.367272, 0.372554, -3.34084
0.31579, 0.152363, -6.53202
4.03539, 1.66063, 6.22918
0.135534, 2.18175, 2.85683
-2.64214, 2.20214, -4.22862
-2.44998, 0.123399, -3.03264
-1.62415, -1.59952, -2.29768
-2.47238, -4.89041, 3.53985
1.71952, 1.54969, -3.50918
-1.22628, 0.488273, -1.67422
0.410756, 0.616971, -1.4075
5.27078, 4.37157, 1.43259
0.523213, -1.48235, -2.03952
1.42675, 1.19044, -2.84505
3.09013, -4.19957, -3.26088
-4.67588, 1.81655, 4.61926
3.99237, -5.31208, -7.99955
0.538168, 0.0430254, 9.26388
-3.94065, 1.41514, -3.79154
0.337554, 0.122912, -2.51575
0.913023, -0.697766, -7.53153
-2.00254, -0.17335, -5.4643
0.166843, -0.157867, -2.58179
1.88344, -1.15483, -2.51646
-3.07546, -0.54882, -1.36859
1.07395, -1.26642, 5.03227
-1.83504, 0.971997, -1.24494
-3.27126, 1.21296, 5.86527
-0.269517, -0.955874, 2.38178
4.36287, -2.97372, 2.80861
-0.807647, -1.74495, 1.99544
1.63099, 1.98375, -1.34406
0.505946, -1.67792, 2.91641
-2.83966, -2.67194, 1.50849
-0.735796, -1.25925, 2.75975
1.79771, 0.891626, 4.56422
-0.271456, -1.46274, 3.40772
-1.40251, -2.74384, 4.23934
0.286567, -1.2109, 2.21961
-0.15335, -4.2507, -6.10993
-0.601992, 0.271206, 3.33802
-3.28248, 3.3758, -6.29833
0.552151, 0.831332, 2.59767
1.42223, 0.826819, -1.9116
1.60031, -2.14816, -2.79124
-3.08467, 2.02278, 7.0821
1.4397, 0.789482, 1.72807
-3.00542, -3.20978, 5.57883
3.92881, 4.30918, -3.42924
0.487924, 0.110616, -2.56693
2.11017, -4.00696, -4.44693
-3.73579, -5.01908, 3.5533
0.540468, 3.0845, -3.0491
2.35606, 1.8592, 6.30803
1.28432, -3.92911, 1.81007
2.87163, -0.0463291, 2.66927
-0.405646, 2.24431, -1.80714
4.72435, -0.133741, -1.65481
-2.00163, -0.73117, -1.08348
-3.22231, -0.999659, 2.87742
4.77693, 1.55044, 4.22522
2.71034, -1.17338, 1.02415
-0.659859, 0.738592, -2.28753
0.325711, 0.636546, -2.02822
0.653622, -9.97738, 5.57108
2.19735, -4.82739, -6.04807
2.22996, -0.3174, 4.3545
1.50744, 6.47051, -2.68146
-3.26969, -0.464004, -5.68396
-1.33109, -3.37314, -5.80169
1.03492, 1.87975, -4.5511
-0.133644, 0.598776, 3.54003
-1.36782, 4.29242, -4.82713
1.90355, 7.85889, 4.57651
-1.61427, 3.22823, -1.65043
1.68824, 3.58575, -6.90384
0.583866, -1.5895, -6.72927
3.25613, 4.90281, 4.05715
0.551567, 3.02077, 3.97875
0.0135937, -1.49956, 2.80644
-1.78908, -1.56512, 3.92673
0.498038, -2.57981, 5.41071
-0.81185, 0.675219, -4.01301
-0.191535, 0.362655, 3.55473
-0.786874, -3.79244, 1.4035
-0.188233, -1.5027, -2.91066
-2.12308, 0.133759, 2.9622
-2.32772, 3.60154, -1.72647
-0.2818, 0.688612, -0.671812
-3.17338, 3.56184, -2.94641
-1.46729, -2.04704, -4.91624
3.55255, -7.24133, 2.23309
-3.14126, -0.238102, -2.94022
0.239884, -3.33609, 4.63299
-2.32886, -1.31922, 4.37984
1.09014, -0.552159, -3.19684
-1.00368, -5.53835, -5.26769
-0.314806, 2.44001, -1.24657
-0.399393, -1.58407, -5.89026
1.2972, -0.861899, 3.82686
-1.51769, 1.61075, 4.1
2.73841, 1.98188, 3.83389
-2.5302, -1.41243, 7.01952
1.18357, -3.2258, -4.02472
0.625802, 1.93454, 8.10656
2.4666, -3.21099, -4.27478
0.193065, 0.191257, -3.28319
-4.55121, -7.04735, 4.46069
-0.46215, 3.20621, 2.00249
1.26552, 2.46933, -3.82748
-0.0834727, 3.66253, -12.0495
-0.0140738, 0.527001, -3.42717
3.68971, 0.937078, 6.87043
-2.89855, 1.08972, 3.34084
-4.47043, -1.77478, 4.22935
-0.478686, -3.38192, -1.56749
-0.353109, 4.66444, 2.82675
-1.05215, 0.858111, -4.58351
-1.01675, 2.77866, 3.91737
-0.158246, 1.49079, -3.04212
0.719988, -5.61222, 4.2464
1.20235, 2.93764, 3.08771
0.927088, 0.680759, 5.0047
-1.73242, -3.61064, -2.9737
2.20467, 0.425099, -3.00647
1.66659, -1.8255, 4.22943
-5.33095, -0.658415, 2.36903
-2.00826, -2.59271, -2.54205
1.68398, -3.4836, 5.11188
3.69875, -1.91056, -5.04534
2.314, -0.40154, -3.41395
1.21, 0.450594, 4.43209
-6.80637, 3.05591, -5.04097
1.89312, -0.911356, 2.35246
0.790539, 6.57113, -4.45747
2.10605, 1.25954, 4.33139
-3.85631, 4.11485, -5.57547
-1.61016, -1.87252, -5.46843
0.447658, -1.89736, 0.716272
1.97578, 2.42712, 3.45504
2.19263, -5.43811, 4.51571
2.44867, -0.390683, 4.53178
-1.13707, -0.0570111, -4.84555
0.726316, 2.76727, 3.98586
-2.08283, 1.19246, 3.80481
-0.133148, 0.253458, 4.84817
-3.27516, -3.99253, 3.44781
-1.88753, 0.795988, 1.82672
-1.05356, -2.06673, -1.47457
-0.903524, -1.44477, 6.04073
0.489689, -2.67584, -1.80686
-2.42856, -1.0936, 4.03486
3.42089, 4.09684, 7.94747
1.80693, -1.61201, 3.32314
-2.09725, -0.0245759, 3.02867
-1.71485, 2.17234, -6.27968
-1.69259, 1.54693, -2.64564
1.69667, 3.4838, 9.42135
0.773735, -1.27645, 1.82112
0.0864017, 4.20364, -1.97694
0.899684, 1.33243, 1.02507
1.03091, -0.365879, -1.69087
-0.659763, -3.86305, 3.11644
-5.10346, 0.604805, -0.866647
4.29065, 3.08278, -5.07675
4.99267, -0.520485, -3.40968
-0.682915, -2.2175, -4.0528
-0.489745, -1.07682, 1.12367
-3.19038, -1.75774, -3.39279
-1.81602, 2.05992, 2.69405
-2.97675, -1.37089, -2.3367
-3.62769, -5.5077, 2.46814
1.60797, 0.240677, -3.35946
-1.31584, -0.708525, 5.06514
-1.11603, 3.41191, 3.42973
2.34192, -2.25833, -1.63771
-4.79797, 0.524156, 6.51805
-2.0191, 0.44045, 2.10321
-0.179291, 0.174574, 4.68118
0.664339, -1.51099, 7.60517
-1.17088, -0.215149, -8.01828
3.22988, -1.52393, -4.42041
1.44169, -3.31468, -2.34626
2.18992, 1.74508, -6.14944
0.240752, 0.131413, -1.15641
3.89636, -0.572906, 2.72253
-1.01805, 1.61169, 1.62724
-0.809911, 2.81573, 8.4598
1.31501, 3.13246, -3.21567
4.37886, -2.30458, 1.88103
2.71456, -0.124256, -3.69085
-0.805989, 0.166534, 2.34399
-0.373877, -1.87314, -7.24244
0.0945763, -1.39342, -3.69304
-2.71974, 2.31383, 0.307606
0.567576, 0.493854, 2.71347
-2.16264, -0.418994, -6.55129
0.973547, 1.28642, 4.22833
-1.83286, 0.331705, -1.66747
-1.11841, 4.40603, -1.142
0.963415, 6.24138, 2.31199
0.363398, -3.38516, 3.74725
0.415755, -0.97993, 9.10138
0.409656, -3.3125, -2.16621
-1.97432, 1.34094, -2.71146
-6.0217, 1.16813, 5.7696
-0.299567, 0.500467, -2.3581
-2.40998, -0.975558, -3.27635
1.71701, 1.44528, 3.14461
-0.354398, 1.5254, 5.06781
2.56448, 1.21673, -1.44633
-3.66067, -5.29628, 1.91117
-1.878, 0.655235, -4.78225
1.10379, -0.999705, 1.27396
0.478951, -0.15363, -3.17384
3.55983, -1.34536, 2.74821
2.48206, -0.784841, -2.35101
-1.14473, 2.48429, -3.33874
-3.23229, -4.48252, -5.96385
1.46319, 0.439836, 1.18952
-2.80007, 0.598163, 3.58806
-0.749286, 4.25767, 6.24301
0.101962, -0.985634, 4.76043
-1.62377, -2.84152, 3.81534
5.27076, -6.88206, -5.86563
-3.51336, 0.796757, -5.45731
-0.802043, 4.95035, 6.17016
-0.446669, 2.75906, 1.81615
-0.214087, 2.71912, 3.54476
-1.58779, 1.87002, 4.76727
0.622069, 0.606261, -1.10387
-1.87736, -1.5948, 1.43109
-0.383113, 2.43379, 4.05869
0.725095, -0.758716, 1.59555
-3.96179, -2.56892, -4.65153
1.43765, -1.20709, 2.11216
1.2404, -0.626312, -3.03419
1.1521, -0.898152, 4.95151
-0.13384, 1.8546, 3.33822
1.04277, -0.767421, 2.86838
-0.550411, -5.6319, -1.8165
0.919622, 1.24054, -1.29782
0.204392, -1.18179, 2.38995
1.19058, -0.225124, -1.07744
2.9039, -2.49974, -2.56623
2.1572, 1.05155, 2.86787
-1.86467, 0.162212, 5.35563
3.17979, 1.10739, -3.71851
-3.98867, 0.349223, 5.28641
0.889101, 0.080198, -2.87553
-4.0163, -5.48333, -1.64646
-0.300062, -1.55821, -3.60706
-2.4432, -2.50959, 7.15745
3.45221, 1.84355, 0.82462
-2.47243, -0.0138844, -2.26134
1.79882, -2.84407, 4.5732
-2.3972, -1.38995, 1.19491
2.6161, -2.20786, 2.85494
1.27959, -1.42318, -3.23175
-1.21283, 1.7993, -5.69093
3.0309, 0.194579, -4.611
-0.495359, 0.278303, 5.11829
-0.726813, -2.41991, -3.59053
0.839084, -1.27305, -1.63949
3.00377, -2.92367, -2.71418
0.158616, -0.350234, 3.70829
-2.36338, 3.21011, 5.32793
3.70266, 3.05994, -1.76238
6.13176, 3.04783, -5.78825
4.55011, -4.49485, 8.49565
0.171412, -0.405739, 2.01767
0.739986, 1.48884, -3.41245
-1.5546, 1.06505, 2.77516
0.987011, 1.41237, -4.6663
3.3986, -5.95124, -4.1748
4.94506, 3.78217, 6.33393
0.98811, 2.59075, -5.03197
1.25866, 0.311818, -4.79594
-3.43518, -0.395392, 2.70078
2.32144, 1.32485, -3.4311
-2.01589, -0.476378, 3.75966
-0.0965323, 0.0723733, 7.46255
0.419271, 4.22819, 1.79762
-0.792676, -3.32558, -4.13516
2.08945, -1.00108, -5.74
0.881043, 0.0719986, -2.43708
-2.03152, 1.81787, -3.18671
1.09651, 2.66005, -5.75697
3.96947, -4.98958, -2.25683
2.5103, 0.104519, 2.90965
5.49484, -3.78431, 5.01153
1.28371, 4.78989, 1.69913
-0.310547, 0.12544, 3.50216
2.15086, 0.0364179, -2.70581
-0.634455, -1.97003, -1.01676
-0.685635, 1.00207, -4.26512
-5.17372, 0.25711, 3.83808
3.18449, 4.46146, 3.23639
-1.37505, -0.137904, 3.31078
-2.37097, 3.52443, 7.3939
-0.832261, -1.58604, -2.19332
-1.21616, -1.69981, 1.96086
-2.85418, -1.71729, -2.0153
1.56852, -1.21832, 4.04504
-0.953747, 1.91459, -4.77072
-4.45697, 2.99221, 1.0958
-0.655171, -1.4607, -3.02031
2.49592, 1.11165, -5.51566
1.99495, -0.266232, 0.911647
1.7046, 2.39636, 3.75583
3.06972, 3.66616, 3.16675
-1.79327, 0.685497, -3.50772
2.69566, 3.07248, 3.65924
4.79156, 4.97533, 3.02835
3.3785, -2.38758, 5.1826
-1.34001, 1.56952, 3.83681
1.00418, -1.09367, 1.46816
-1.20077, -2.48314, -5.57472
5.17355, 0.742812, 2.96632
-6.95335, -2.31847, 5.72819
-3.06217, -5.52024, 3.87569
0.976961, 1.77602, -9.6687
1.24294, -0.196975, -3.96963
-5.35447, 1.91717, -4.27908
-0.507011, 2.54581, 2.78667
1.25435, -5.37266, -1.94364
-1.61395, -3.08587, -0.814179
0.231848, 2.57373, 3.62544
0.180559, -2.15235, 6.72142
-0.574193, -0.666948, 2.65003
-0.514002, 1.22649, -3.22965
-1.34912, -1.93286, -1.74698
1.73627, 0.615781, 2.81311
-0.623486, -4.37654, -2.77151
-1.06579, 3.55593, -7.31106
-3.23008, 0.0699537, 8.88975
1.04297, 1.23843, -4.00804
-3.73835, -2.7126, -5.05207
0.377384, -1.08608, 2.18188
-4.33102, -1.47888, -4.17806
-1.44295, -3.48744, -3.43785
1.18157, -0.972455, 2.58353
3.78166, -2.0635, -3.84828
2.52043, -0.619896, -4.15759
0.552833, -2.06759, -3.03324
-0.98432, 3.91117, 1.54493
-3.26306, -0.195817, -3.46513
0.939415, 0.952284, -7.86725
-4.16372, 0.252767, 3.33545
-0.315146, 2.70731, -1.40541
-0.401843, 0.730035, -2.85622
-0.871443, -3.84712, -3.07978
6.2789, 1.9257, 3.59586
3.25664, -0.365914, -4.23813
0.427932, -2.59153, -4.95596
-2.58944, -4.0875, 1.6407
-2.13277, -1.77998, 2.31158
-2.54484, -2.83349, 6.07788
1.73411, 2.64296, 2.24608
-2.24422, -2.40533, 2.39591
5.61293, 2.71812, 9.31928
0.961292, 2.67703, -4.36726
1.59592, 1.92866, -3.19393
1.25591, -0.341677, -4.23116
-1.51604, -4.37631, 2.0576
1.15245, -0.178464, 2.46599
-2.55239, 0.460241, 3.17476
0.671879, -0.719208, 2.72373
-0.44081, 0.915604, -3.71065
-0.878522, 2.07094, -5.71777
0.977665, 0.919469, -3.06499
1.79791, 0.343235, 2.61372
-0.376324, 3.17752, 3.33095
-1.93446, 1.80485, 2.87032
-3.73327, -1.51117, -3.9492
-2.83402, 1.6253, 5.02091
2.17384, 1.62377, 1.95605
1.22926, -2.72875, -1.72079
3.66108, 1.42668, -4.24598
0.333812, 2.66727, -4.73529
2.53764, 4.53392, -6.39887
3.16764, 3.50735, 1.5263
0.849733, -0.773315, 2.79481
-2.88445, 3.83327, 4.22405
0.136512, -3.50709, 5.16096
2.01446, -1.57186, 3.51548
2.67344, 3.52659, 4.73887
0.988031, -0.00425474, -2.71598
2.08303, -0.814199, -3.96326
2.76895, 3.54485, 5.70454
1.58146, -5.40734, -6.17019
-1.19539, -1.36996, 2.49328
3.81243, 0.852924, 4.13254
-1.02037, 0.628144, 1.69464
3.64589, 0.823566, -3.81791
-2.36417, 1.16653, -2.68585
0.218176, -1.61164, -1.14904
-0.381156, 0.749503, 2.37278
-1.35536, 2.45597, -3.12199
-2.60228, -0.36217, -4.92407
0.397609, 0.0926236, -1.63593
-1.95785, -2.01137, -5.52282
0.805523, 5.4164, 5.75411
-0.434354, -4.38291, -2.49481
0.544977, 2.09824, -1.87626
1.72301, -1.61801, 1.21161
-2.33529, -1.55572, -3.62831
-1.15988, -0.74469, 7.54645
1.37103, 3.01326, 2.07076
-1.28131, -1.60627, -2.348
-1.80892, 1.05023, 7.19869
-0.158134, 0.314175, -5.01669
-0.0106731, -2.38825, -5.01759
-2.74852, 3.19031, 3.4607
3.35537, -1.95543, -4.72621
-0.690683, -0.084327, 1.39167
-1.88776, -0.137869, -2.17562
1.94046, 0.796729, 1.29812
4.36663, -2.42639, -1.29502
1.611, 0.939713, 2.58983
-1.69462, -0.649053, -4.28929
-5.85146, -2.55861, 4.98407
2.46737, 3.09701, 4.83061
-1.41214, 3.51123, 2.53174
-2.2499, -0.277309, 3.43178
-0.725682, 0.853357, 1.21193
0.00526098, -1.23693, 1.57374
1.10387, 0.269824, 1.52198
3.11833, -0.89968, -8.15827
1.96516, -2.2051, 2.93129
2.60146, -1.16003, -0.999523
1.06219, -3.34477, 8.1902
3.01244, 0.652197, -6.85402
2.77671, 3.94655, 3.98295
1.6337, -1.12212, 1.80522
-3.79933, 3.56505, -2.06851
-2.05005, 0.960294, 6.23923
-2.67658, -2.40741, 5.76401
-3.4474, 3.73734, 4.83812
0.725983, -0.34512, 2.11881
-2.14998, 0.169901, 5.43947
-0.13733, 1.86768, -2.98006
-4.97935, 1.58224, -3.78718
-3.33865, 0.86547, 3.41829
-9.72843, -1.69433, 5.55142
-4.16368, -3.59415, -4.1055
4.48935, 3.26131, 3.47219
-1.6494, -2.91027, 3.45211
1.28006, -0.632442, 4.37792
-0.371796, -0.840993, -3.93876
-0.606152, -1.31904, -1.19852
1.01224, -1.2335, 1.53494
3.28252, 3.58367, -6.88084
0.244267, -0.976894, -3.48465
1.37119, 1.11577, 2.86679
-0.41507, 2.06345, -2.63135
-1.96492, 0.539527, -2.57168
3.90873, -1.3777, 3.9832
1.03205, 4.8989, -6.74973
0.215105, -0.438071, -1.75831
-0.408569, 0.101851, -3.3197
1.43461, 2.85818, 3.99185
-3.96795, 1.99519, -1.97811
5.97728, -5.61527, -3.52939
1.99924, -2.26079, -8.33345
0.176117, -0.312018, -1.94449
0.838567, 0.206961, 2.75497
-4.16529, -3.11408, -4.78854
4.21356, -5.59281, -5.46713
-1.6552, -2.15046, -3.60571
0.584648, -0.38899, 3.10186
-1.42491, -1.0058, -3.39665
-4.76224, -1.35917, 3.15444
1.8912, 2.27187, -2.25866
-0.226612, 2.45403, -1.73507
1.7438, -2.79616, -6.39154
0.206699, 1.03575, -3.18052
0.999526, -4.13799, -2.00363
-0.476037, -0.0824948, 1.68593
2.69499, -3.59349, 5.59375
1.9873, 5.55486, -3.78551
-0.550646, 0.481496, -3.21087
4.24223, 2.94397, 1.00654
1.1468, 1.36823, 4.56479
-2.28661, 0.909666, 1.49568
1.89117, -0.928832, 8.60757
1.40622, -0.668995, -4.1692
0.314698, -4.7377, -3.17529
0.566184, 1.76308, -4.28479
-2.06136, -0.197818, -2.41433
0.0966568, 0.578299, -3.2881
1.22498, -0.515252, 1.571
4.86832, 2.65224, -3.26879
-0.372779, 1.94274, -2.47234
-7.40739, 5.22212, 4.72432
0.237908, 1.34592, 4.8143
-0.059772, 0.145973, -6.16287
3.96977, 4.35648, 3.85893
-0.794533, -0.0695496, 10.6448
-0.253297, 0.273138, 1.32498
3.72209, -1.00677, 4.26034
-2.18839, 2.28574, -3.70217
0.759815, 0.894117, 4.34365
-0.437549, -2.20545, -7.63378
-1.77494, -0.209554, -4.52832
-3.21619, -7.67689, 7.37392
0.230211, -1.50043, 4.43002
-3.27152, -2.27622, 6.59357
-0.159651, 3.09027, 1.5163
-1.12146, 1.12178, 4.63162
1.36805, -3.5679, -2.55838
0.706756, 0.937597, -2.43266
-2.13591, 0.367411, -2.99558
3.99565, 1.46663, 1.03877
-5.07347, -0.586179, 4.25209
-2.70867, 5.46598, 2.64188
-1.04019, -0.359808, -5.85528
2.73386, 1.11535, 4.80765
1.42817, 1.12284, -1.21807
4.97802, -2.3257, 4.36799
-1.23408, 0.0220711, 3.75928
-3.81119, 0.988987, 4.60508
1.70792, -3.57276, -5.15755
0.940535, 1.1856, -3.45795
1.01794, -0.817403, -6.63976
-1.24456, -1.28238, 2.86615
2.985, 6.25104, 3.89718
0.50421, -1.62584, 2.93477
2.85689, 2.80388, -5.52795
0.687415, -1.06397, -1.71938
-3.07194, -4.77788, 1.29363
-2.1987, -1.31474, 2.34536
-0.887705, 5.86542, -3.78807
1.69482, 3.8384, 1.88722
2.79327, -0.362759, -2.18168
-0.0664096, 0.287793, 1.29736
-0.555427, -4.35424, -5.02703
2.76272, -2.33599, 3.25057
-1.02611, 0.005296, -3.96986
1.18192, -0.325863, 1.58826
-0.950527, -1.4854, 2.49781
0.41587, 1.33295, -1.8501
1.0193, -3.50014, 2.22386
-1.18031, -0.226417, 4.87843
1.31556, -0.729579, -0.979793
-1.19165, -4.94393, -4.74631
2.06024, -2.5893, 2.75926
-0.451494, -1.19439, -2.56495
-0.340067, 0.457314, 2.59685
3.57693, -1.05024, -1.94893
0.104892, 0.0295419, -4.29835
3.95698, -8.05196, 2.62487
0.82123, -0.233636, -2.56483
1.20098, 0.111218, -1.4165
-1.49397, 2.01841, -3.5433
0.266596, 0.284923, 2.38702
1.8007, 0.853838, 4.98767
-1.21658, 0.390582, 5.27912
-0.0483016, 0.329297, -4.44726
-2.89142, -1.37561, 4.97627
-0.57002, -2.44681, -2.55956
0.113076, 2.94884, -0.697273
-0.965861, -1.01634, 4.72608
-0.295517, -1.43105, 5.56257
-1.51637, 7.58749, -5.27233
2.04871, 1.93937, 2.07698
0.224517, -0.0823234, 3.75109
-6.86914, 2.08514, -2.41632
0.163422, -0.215453, -1.24701
1.2158, 2.7533, -3.79593
0.543207, 1.62126, 3.12086
1.38429, 1.36269, -4.27622
0.144618, -2.63718, -3.68497
0.860049, -1.05282, 2.51829
0.551117, 0.455224, 4.08049
0.814486, -0.571036, 2.64573
7.01157, -0.734702, -2.98397
-1.32012, -2.9599, -3.62801
-0.15888, 3.33527, -3.17728
2.96877, -4.4595, -4.54225
0.126214, 1.1786, -7.99135
1.07822, -0.124625, 3.31134
-1.1714, -1.62668, -1.40662
3.93602, 0.503417, 5.55934
0.00330516, -2.18271, -1.60688
-0.295993, -4.28406, -2.24632
-0.611633, 0.600441, -2.60548
-2.46901, 1.86214, 4.3064
5.35839, -3.53909, -2.81326
-1.84534, -4.05364, 8.84503
-0.656159, -0.326274, 1.67558
0.108927, 0.289576, 0.656045
0.200037, -0.195633, -2.28782
3.70893, -0.279972, 4.17987
0.604019, -1.60317, 3.59328
-2.85514, -3.98689, 1.65596
3.0143, -1.14524, 4.77666
-0.662822, -0.160451, 2.04444
-0.737344, 2.35573, -5.06592
0.0253017, 0.776244, -3.91693
1.45073, 3.43941, -3.25395
0.629508, 7.44881, 4.41708
-0.796625, -3.65453, 1.6572
-0.90811, -1.2737, -4.42884
0.0063187, 5.06145, -1.39979
3.01931, -0.905928, 3.78142
2.60533, -4.24122, -3.74111
-2.43531, 1.5692, -5.68088
1.19479, -4.95968, 3.88441
0.995388, -0.614153, -7.72702
-4.62763, 2.69911, 2.42505
0.0493485, 0.0078028, -1.26243
-5.63828, -0.768174, -3.46987
1.12972, 0.308456, -2.64522
3.75451, -1.83013, -7.0962
1.03087, -0.760429, 8.59308
0.0834851, 5.92587, -3.77605
-0.102979, 0.742209, -2.92608
0.925917, -1.12265, -5.90808
-0.0565922, -2.07983, 2.06648
4.14302, -1.27097, -7.77477
-1.21843, -3.40262, 4.84152
1.90473, -6.54459, 4.98852
0.631493, 2.11565, 4.2306
-2.59545, 1.10357, -3.95929
-4.95003, -1.40371, -4.84543
2.13702, -4.7378, 4.49349
-3.28585, -2.18945, 0.975784
-0.910509, -0.60477, -3.83334
-0.808783, -0.757179, -3.3466
0.179871, -1.75194, -7.3584
2.48397, 5.09278, -3.83967
-2.25978, 1.20713, -2.83045
-8.20908, -4.49308, -14.6895
-3.06705, 4.48021, -3.44463
-1.92271, 3.40842, -4.39346
0.0233201, -1.52301, 3.75676
-1.73044, -0.291751, -4.18822
-0.887288, -0.942091, -1.61956
-4.64547, 0.498908, -6.05705
-1.45541, 1.64003, -1.92587
-0.433496, -4.74113, 6.2147
-2.28599, -0.146186, 3.42416
-0.880684, -0.229926, 1.14393
-0.981041, -3.26811, -2.49865
-3.88393, -0.994415, 1.74959
-3.5209, 2.53396, -3.66156
1.35863, 0.793955, -2.995
0.943233, -2.8734, -3.73867
0.236667, -0.889095, -1.74748
-0.737073, 0.436586, 3.47532
0.287368, -3.7278, -2.43324
-0.745877, 1.08126, 1.9913
-1.10375, -0.495846, 2.93608
-1.20287, -0.816324, -1.10841
-1.65497, 1.08076, 0.388244
-3.19168, -2.83026, 5.13172
0.480859, 0.504211, 4.09148
-2.31837, -4.27721, 7.16363
-1.11744, 2.06652, -4.26444
-0.522787, 1.01698, 4.06847
4.82519, -5.5036, -10.5824
-5.57928, -2.58832, 4.70068
0.392119, 0.893841, -5.02409
1.5233, 1.34315, 1.73889
-1.26291, 5.2808, 2.68924
-0.429936, 0.199712, -3.90531
0.946167, 3.14301, -2.79052
-1.92953, -0.56298, 5.5185
-1.56647, 2.37967, -4.49659
0.596451, 0.595551, -2.30929
1.28619, -1.44169, 10.6413
-0.399974, -0.984424, -4.58598
-0.402876, 1.816, 5.27051
-0.38467, 0.836672, -3.49114
1.74097, -1.38634, -3.60449
-4.00588, 4.89279, -4.68835
-1.12089, -3.70439, -1.85517
-2.63728, 0.330676, -3.86927
1.7033, -1.45551, 1.19932
1.68071, 2.74703, 4.01929
-2.41855, -0.346378, -3.82415
0.497411, 1.00287, 3.54853
-0.224902, -1.2542, -1.37264
3.68882, 0.556151, 3.34784
0.789415, 2.0016, 4.08433
-2.30522, -1.90385, 3.22803
-0.825707, 3.32132, 3.73122
6.21312, -2.91989, -4.92938
1.58036, -1.71529, 0.675469
-3.99785, -0.378009, 5.04476
2.11895, -1.64688, 2.3936
2.03507, -1.13084, -3.37046
4.96448, 0.83378, -2.66667
0.631442, 0.35196, -1.56964
-4.78337, 2.00579, -4.38825
6.21827, -1.69171, 1.60224
0.685033, 4.16722, 3.03852
1.70881, 2.73122, 9.77906
3.07175, 0.470663, -3.073
-0.673744, -3.59051, -5.27773
-1.48999, -3.61078, -2.02925
-0.0138028, -2.24693, -2.62655
0.0177555, -0.504629, -2.92088
-0.105647, -0.697001, -2.98001
0.913396, 0.409974, -3.5671
1.30616, -1.50093, -3.3723
2.34096, -2.18189, -1.07007
-4.51744, -0.262999, 4.66827
-1.96471, -1.601, -4.09025
0.480655, 1.23142, -1.81031
1.42289, -0.584028, -3.62153
-5.05937, 4.20065, -2.3781
0.415497, -2.75632, 5.66861
-11.0914, 0.484429, -8.1947
0.0567178, 2.28876, -5.80958
0.470832, -0.219197, 7.32748
0.385549, -1.87197, 3.20986
-1.64618, 5.81643, -6.15559
0.607884, 4.16435, 1.10134
2.79937, -1.90331, -3.49921
-2.29644, 0.0897607, 1.10087
-2.99306, -0.256463, 7.57449
2.21283, -1.27845, -4.13088
2.07879, 0.271497, -6.82653
0.336538, 0.795093, -1.88296
-0.313894, -3.9788, -3.09217
1.42677, 1.2309, 2.09243
-0.872861, -1.33158, 2.46204
4.01389, 0.295208, 2.48203
0.396307, 1.8539, 0.381775
-7.42657, -0.669067, 1.91341
2.02649, 0.197193, 4.36024
-2.25798, -3.67889, 0.951848
-3.38843, 6.26053, 3.79762
0.0234332, -2.40907, -3.51705
1.91945, 2.59768, 1.23891
-1.02803, 2.71909, -2.78298
-0.840751, -0.194713, 3.1869
6.38838, -0.0255205, 5.30638
0.2498, -0.804874, -1.6423
1.30477, 2.00128, 1.58354
-1.26798, -0.11644, -6.52538
2.47138, 0.079543, -2.68876
3.03979, -1.51599, 1.63377
-1.81728, 0.849708, 5.10175
0.649791, 2.03326, -3.37674
-0.357133, -0.434139, -1.51014
-3.85556, -0.926745, -4.83591
3.73296, -1.79498, 4.14192
-2.72479, -5.97329, 4.29634
-3.24432, 5.0376, 9.84913
0.863139, -0.913717, 1.01376
-0.0920413, -0.959186, -5.11072
-1.43844, -1.74954, 2.82795
2.31093, -3.0499, -5.3938
2.15619, 0.147651, -1.93935
-0.883707, 0.638052, -5.03741
0.78701, -0.890424, -3.49216
-1.55491, 3.86294, 3.90113
-0.400609, -2.06428, 4.89642
-2.39529, -0.288303, 2.1237
-0.671593, 2.33346, 1.47503
-4.43014, 6.09549, -8.65181
-0.645572, 3.9235, 3.09038
1.04967, -2.19897, 3.62954
-2.80585, -1.50313, 1.78431
0.581454, -0.764986, -2.22509
1.26058, 1.87151, 8.06103
-2.6587, 0.646242, -5.80016
0.637447, -3.43391, 0.893005
-1.65343, -1.26124, -2.93992
2.35035, -0.421768, 5.60683
-3.51714, 0.0452217, 6.16846
-1.60235, -0.619148, -2.51867
1.3452, -1.51442, -5.01536
-1.28805, 3.84982, 5.26103
2.21368, 0.351055, 6.44363
-6.23597, -3.97632, 1.77753
-0.813025, -1.26419, -3.12952
0.203064, -3.95508, 6.32424
0.478191, 0.610025, 3.74657
2.35503, -1.67305, -6.02057
1.47138, 3.3037, -4.91371
3.57763, 0.876938, -7.60133
-0.0507107, -1.55508, -2.61948
0.950597, -0.372495, 2.15483
2.69143, -1.01008, 2.6768
-3.03599, 0.930278, -2.63097
-0.202337, -1.05142, 3.60396
-0.893834, -0.473139, -2.08647
0.390243, -1.18799, 4.65632
-0.830051, -0.583981, 1.61387
-3.0709, -2.08739, -5.35398
-1.48958, 2.06301, -3.05433
-0.493872, -1.09611, -3.3761
4.67767, -4.32057, 5.60088
-0.18219, -0.540619, -1.93676
0.360946, 2.99433, 3.42874
-0.166228, 3.09884, 0.748187
-2.98486, 2.82006, -2.39625
1.47686, 2.34248, 1.6972
2.32725, -1.1229, -1.81511
1.85102, -0.834276, -2.48504
-0.764949, 2.18707, 3.82798
0.382031, 0.320937, 5.98847
1.32775, 0.813072, -1.48887
2.88458, 1.37824, -2.52646
1.89901, -4.13885, -4.61955
0.19338, -3.32668, 5.13565
0.678456, -1.53418, -1.89553
-1.81746, -4.41251, -5.56195
2.01683, -0.235815, -8.07706
-2.01272, -2.47877, 5.32434
-2.33714, 3.5808, 1.67862
3.34097, -4.51514, 7.16451
1.04949, -3.61611, 0.887627
0.44631, 1.51953, -2.8315
1.22411, 0.472362, 5.77228
0.0276413, -0.828166, 0.570384
2.34959, 1.45161, 4.83797
2.03386, -3.28058, 0.865202
-0.755762, -0.133332, 3.34102
-0.274406, 1.26838, -2.67787
-4.50077, -0.244645, 1.75903
0.0356804, -2.02157, 4.27507
1.25972, -0.0531732, -2.75225
0.942778, 1.11766, -1.78955
-1.43178, -0.539233, -3.40288
-2.6476, -1.78304, -3.35512
0.831452, 0.625074, -1.64453
-0.684468, -3.35302, -3.37381
1.3629, 0.364831, -2.11576
-1.26149, -0.723836, -5.88365
0.209789, 2.52821, 6.49618
-0.123835, -0.82305, -1.99281
-1.10647, -1.39453, -4.72476
1.21511, 3.85167, 1.83134
4.70582, 1.84421, 4.68656
-1.9881, -0.251952, -2.41785
-0.22837, 2.46772, 6.74369
0.374423, 0.44874, 2.60456
0.0904588, -0.206989, -5.20095
0.191765, 1.35343, 3.8265
0.790842, -2.10382, 4.32297
-4.91397, -0.987854, -8.22728
0.707164, 2.16145, -3.6641
0.131886, -3.19419, -5.09057
0.440538, -0.141607, -3.61521
-1.6868, 2.55572, 3.56702
-6.74649, 0.9389, 4.79487
-1.63429, 0.254782, 3.06125
-2.3787, -0.731566, -3.46442
-0.816636, 5.38647, 4.56735
1.08125, 2.73376, 8.32736
-2.26743, -0.773154, 3.56605
-1.90289, -2.07962, 5.41014
-5.8331, -7.42177, -3.41253
2.4949, -2.21774, 3.11481
2.04466, -2.86074, -2.57888
1.56121, 2.41057, -3.26276
-2.57061, -3.49795, -2.67427
0.189734, -1.82532, 4.49804
-1.39978, -1.59481, 2.64987
0.782083, 3.71989, 1.95719
-0.0698929, -1.81569, 1.9093
0.261701, 9.11966, -2.4647
-0.155166, -5.37299, -4.55396
-2.32279, -0.808158, -8.15548
-0.179914, -2.68285, -0.984388
1.2506, 0.41311, -2.07174
-3.33401, -2.24388, -3.38625
-1.82171, -1.29735, 3.4048
-1.98567, -1.07442, -7.23425
1.15254, -1.29406, -0.967306
-1.45541, -1.11146, 5.64442
-0.114989, -1.89976, 3.7784
0.817713, 0.860815, -3.73382
5.20773, 2.05474, 10.6224
0.789188, -1.47657, 2.67439
-0.00969817, 0.543249, -1.14032
-0.867583, -0.416392, 3.86274
4.61534, 6.75171, 8.66387
-3.61492, 3.06849, -3.76521
-3.46702, 2.09758, 5.85992
1.43551, -2.96973, -3.4785
-0.191655, 2.19911, 2.90024
-5.75666, 1.57599, -7.89101
-0.954263, 0.61614, 2.196
0.578299, 1.88521, 5.35043
-2.90311, 0.185232, -6.47377
-1.72516, -9.16378, 3.78422
-3.95812, 2.63183, 6.23245
-0.670048, -2.37428, 5.65886
6.76859, 0.119439, 5.98183
1.06928, -2.96814, 2.35387
0.964918, 0.355828, -1.02672
-9.44705, -5.84, -4.85557
-3.02958, 0.805787, -3.8702
-0.151266, 3.19365, -2.67832
0.0983942, 0.778489, -2.30788
-0.363713, 1.03446, 3.54213
1.64723, -5.45557, 8.63715
0.805411, 3.28217, -2.09466
-0.201163, 0.55582, 7.18937
-0.808867, -2.6189, -3.13846
0.202243, 1.34426, 1.08412
2.49968, -0.0865442, -5.83097
3.51185, -1.93564, -2.64683
0.673894, 4.34649, -3.96148
1.49066, -0.281233, -3.87626
-0.981927, 0.731896, 5.66357
-0.27733, 3.1901, 2.46752
-1.0236, 1.23649, 10.7703
-2.33605, -3.00181, 2.72664
0.356911, 1.67698, 3.41032
0.0290148, 0.633859, -2.22053
-1.0135, -1.75366, 2.33146
-4.01788, 2.14703, 3.82503
4.57301, 2.57238, -5.04038
-7.3365, 0.890604, -6.36314
-0.782701, 0.363177, -2.06246
1.41024, -1.55027, -1.49722
-1.33523, 3.08847, -2.08097
0.789194, 2.58868, 1.86925
-1.14419, 0.430172, 1.02729
0.488827, -1.62058, -2.20186
2.72526, 0.500985, 2.18406
-0.420807, 1.76055, 3.4754
-0.662928, -0.119193, 2.4429
-4.19252, 0.447976, 3.61189
-2.95655, 0.771688, 3.577
-1.14679, -5.26274, 5.24731
2.81879, 0.54074, 7.51311
-1.36768, 0.104761, 3.53283
-0.249325, -1.35702, 2.85627
-1.58948, 1.43627, 4.15869
-6.64484, 1.69033, -3.44723
-6.6874, -2.76543, 1.35378
-1.50519, 0.0671819, 4.0506
-0.422468, 1.05857, 2.13867
0.593715, -0.64455, 2.63307
-2.07225, -0.0277237, -3.64123
0.961369, 2.37831, -4.5723
-3.23886, -3.88467, -4.27069
-0.168428, 0.0935584, 1.23682
2.64777, 2.71627, 5.7199
-0.834279, -0.566435, -7.89239
-4.57155, -0.356531, 2.76153
1.75716, 0.0890441, -2.49857
-0.759884, -0.776342, -2.05845
-4.67038, -2.18358, 5.55868
-1.32652, -1.35199, -1.93992
0.284227, -1.44619, -4.04177
2.6551, 2.55224, 3.56494
-4.12301, -5.62976, -2.57857
2.29607, 1.30534, -7.41738
3.78324, 2.95833, 4.80908
0.505829, 0.965295, -3.37007
0.116004, 0.367696, -1.58255
1.17268, -0.128475, -2.33895
-0.167391, -0.44525, 3.78499
0.253906, -2.40711, -2.4769
0.55456, 0.803376, -1.48351
1.28256, -0.306553, -3.5781
-4.01517, 1.93151, -8.53957
2.54706, 0.331468, -0.346408
-6.65692, -1.16577, -3.9701
-0.0892788, 0.350273, -2.1853
-2.82186, 1.08911, -4.2038
0.0182211, 0.881064, -1.41833
-1.52197, -2.71952, -7.00327
-0.427035, 1.6777, 2.7188
-0.537159, 0.0756651, -6.28207
-2.99629, 3.48783, 5.46083
2.74717, 2.79391, -4.38432
-0.506601, -1.43898, 3.84911
-6.17113, -0.670069, -6.81195
0.569651, -1.69723, -1.34503
1.54374, 2.11735, 1.66296
-2.83108, -1.28471, -3.78613
1.78216, 0.925158, -4.77926
-4.4263, -1.97897, -4.33012
-0.0425049, 1.91084, 2.27628
-1.4481, -3.85376, 1.03765
0.403318, -0.124428, -0.978648
1.09034, -1.98581, -2.74643
-1.10338, -2.27296, 3.88907
-0.422208, -1.57757, 2.57352
1.41868, 4.34416, -2.68106
1.12405, -0.509238, -4.32043
2.88552, 1.3092, 5.01598
3.71866, -0.0656202, -1.50078
-1.22512, -0.0039435, -1.6461
2.14907, 3.25515, -2.5285
2.3487, 5.6972, -2.34422
2.5649, 1.45635, 2.52855
-0.470716, -1.79528, -3.07466
-1.00758, -1.4502, -2.58297
-0.868712, 1.32644, 4.27789
1.55294, 1.95614, 2.34632
-7.66318, -1.75606, -3.44886
1.09928, 1.40402, 2.38313
2.12632, -0.186145, 9.71584
-6.98326, 3.8851, -4.78076
1.24269, 0.467893, 3.81732
-1.41163, -2.51024, 4.95065
2.445, -1.84611, 3.52615
0.581926, -1.9103, 1.76964
-1.72838, -1.66279, -0.910476
-6.61314, 0.484882, 8.23755
0.00299162, 0.610879, 3.12432
-0.864971, -0.241626, 3.88846
-0.644362, -2.06823, 1.01659
0.550665, 3.13443, -2.34201
-0.71475, 1.4511, -1.34881
-2.76392, 3.9873, -4.3098
1.28194, -3.62141, -3.55092
-0.0674609, -1.38812, -8.94774
-0.764821, -1.25134, -5.19926
-3.36598, -1.69069, -1.01929
-0.181276, 1.43632, 8.15938
2.39161, -0.14242, -8.8118
-0.311253, 1.66223, 8.31189
-0.625405, -2.4968, -2.16913
-3.21863, 2.06899, 2.80183
0.138853, 3.51128, -5.21976
-1.79935, 0.0611684, 1.95997
-1.49645, 2.48695, -3.19027
-1.36139, -1.81209, -7.6504
-1.51382, -2.89318, 4.25441
0.517188, 0.277743, -1.62934
0.358763, 1.97896, -2.57119
1.82227, 4.03315, 3.56107
-0.0403599, -3.3253, 4.04026
-0.315923, -1.17267, -2.47863
0.578317, -0.493872, 4.54032
0.511725, 1.05097, -8.1435
4.25235, -0.937047, 5.18137
0.503592, 1.73756, -2.70409
-4.15383, 1.33129, -8.14844
-2.22249, 1.01398, -2.11142
-0.328046, 3.76369, 2.32756
-1.60707, -2.26216, -1.81678
3.30587, 0.444905, -4.76078
0.079867, -5.84799, -1.42455
1.17299, 1.42861, 3.17265
1.78069, -4.53194, 3.07124
0.606028, -1.18359, 2.54058
-2.12938, 0.5622, -2.52788
-0.365744, -1.85331, 2.32906
5.60724, 3.79435, -3.90698
0.336556, 6.04377, -3.18005
1.56008, -3.05277, -2.95065
6.49686, 2.88863, 7.61911
-3.65657, -1.54874, -4.47668
0.810782, 4.03181, 2.34758
1.78584, -1.19388, -2.0958
-0.179647, 0.889599, -4.38611
0.35024, 0.297462, 1.86973
3.14457, 1.41825, -4.4146
0.58932, -0.392459, 1.26235
-3.19148, 2.84247, -2.21172
1.00087, -1.41348, -1.89916
-0.74175, -0.395466, -4.09729
-1.95115, 1.54475, -4.0675
-2.50583, 1.53439, -3.43926
1.55051, -0.16032, -1.51992
0.890497, 0.239888, 4.66838
2.75377, -0.00772769, -3.80958
-1.59166, -0.754198, -1.5184
0.923217, 1.20024, 1.58068
0.527733, -0.642757, 1.51
0.870803, 1.19981, 3.00463
1.24243, 2.65199, 5.35503
-2.20216, 2.31201, -4.77846
-0.356739, -1.61627, -3.06799
-3.49014, -7.66725, -1.49241
0.197276, 1.66653, -2.74415
5.92048, -4.21986, 1.46843
-3.54462, 0.360907, -5.26531
1.66322, -0.474122, -1.45657
4.80739, -3.68426, -6.65363
-0.255103, -1.18079, -3.38377
2.075, -1.21365, -5.33488
-2.15988, -0.666489, 1.5922
1.80431, 1.75326, 1.7717
-2.2128, 3.85903, -3.95245
-1.19558, -3.23952, 1.81624
0.540197, -0.232142, -1.41883
0.213796, -0.13822, 4.3176
1.09228, -2.22841, -1.99259
3.15622, -0.881431, -1.73144
1.59663, 1.4468, -2.08307
1.28567, 0.598432, 6.30812
5.36672, -0.610319, 2.18088
1.18823, 1.27728, -2.09996
1.30188, -0.881949, 3.76205
3.5976, -2.56034, -5.80139
-1.54243, -0.741591, 3.13757
0.933775, -2.07444, -2.93318
1.89987, 1.27183, -4.31812
1.71208, 0.0854421, 4.49758
2.80424, -0.0337931, -3.88244
-5.0223, 3.12876, -2.06165
-0.771634, -0.627824, 1.55204
5.05035, -0.928038, 3.38041
-0.93607, -1.04443, 5.50668
-1.45852, -3.00889, -2.95337
0.785549, 3.21701, -5.51817
-0.744897, -0.970068, 0.822229
3.36555, 1.52939, -2.73116
1.44445, -6.73022, 2.5574
1.0646, 5.35985, -4.62214
-5.12223, -0.5874, -1.81424
1.18873, 0.235486, 5.96411
1.14181, -5.60405, -6.85467
-0.304452, 4.4981, 3.52664
-3.16706, -0.278909, -2.68747
-2.53827, -1.22435, 3.45547
-3.08944, 1.80685, 2.27162
1.66399, 1.67156, -2.63087
1.30802, -0.126715, -6.00021
-0.130047, 3.85732, -1.06155
-0.239263, 0.559247, -5.23074
2.25969, -2.40454, -4.17081
2.10644, 2.30071, -4.4635
0.0670227, 0.347992, -4.02301
-1.89926, 2.16953, 2.30289
0.965611, -1.35171, 3.32459
-1.83243, 3.72295, 4.11094
-4.44528, 1.65158, 4.94502
0.0447203, -2.82938, 6.04408
-1.1412, 1.54908, 3.1514
-0.895107, -0.733149, 1.7167
-3.75185, 0.94511, 5.62539
-1.16372, -1.48368, -6.93527
-0.40911, 0.321719, 7.74829
1.40338, 0.928898, 4.21235
1.465, 1.28538, 1.86804
-1.25924, -1.04607, 5.40473
-1.45012, -2.28143, -0.85019
1.13461, 4.70224, 2.83514
0.863917, -0.20495, -1.06217
-0.976734, 2.26821, 7.34898
-2.36317, -1.29692, 3.05003
1.50213, 2.5911, -1.06974
1.62049, -0.768033, -4.71274
-4.5656, -3.01306, -6.2659
-1.69868, 4.01014, 1.93213
-3.85101, -1.5815, 4.6104
0.248965, 0.596861, -2.98624
2.57764, -1.50482, 4.64822
-0.0700397, 0.250877, -3.1334
-2.80978, -0.509875, -1.43874
4.622, -0.172273, 2.59141
-2.16409, -0.893028, -3.40443
-2.10011, -4.52595, -5.79191
-0.350781, 0.716949, -1.07105
-3.17653, -2.07837, -3.23913
-1.34158, -1.06161, 3.5897
-7.41554, -1.88274, -1.31509
-1.07622, -0.506549, -2.09229
-0.789247, 3.72894, 6.17998
0.691528, -3.75754, 3.4817
-2.49819, -1.20931, -5.02072
3.13914, 1.85796, -6.68642
-2.32022, 5.72852, -4.54417
-0.464227, -1.41443, -4.75325
-4.06787, -1.39383, -2.31882
3.47036, 3.67198, 4.70071
0.25899, 4.77174, 3.34098
-1.90677, 1.60007, -2.13832
0.486029, -0.349288, -3.2794
-0.706983, -5.13883, -4.87106
-0.0567782, -1.53903, -3.34864
4.00972, 1.61741, -9.29632
-2.01575, -1.12425, -3.3959
-2.53381, -0.403832, -4.23915
1.91242, -2.26675, -1.98791
-2.02951, -6.94746, 2.3187
1.05013, -4.39276, -1.77057
0.790164, -0.0935104, 4.59838
-4.17717, 4.04029, 3.81104
2.70361, -2.60792, -4.41839
-3.36294, -1.67994, -3.37542
1.07634, -0.0700436, -7.64337
-4.06936, -0.0766823, 6.9278
-1.83563, 3.97124, -6.63414
-0.663274, -0.0505181, 2.31004
2.65617, -7.17522, -4.39972
-5.45108, -2.59165, -8.12898
-0.0541873, 0.124886, 0.749319
4.80208, -0.665793, -12.1092
3.26232, 3.72733, 5.09272
4.58422, -2.47726, -2.06774
5.07304, 1.81423, -7.44069
-5.70138, 0.229042, -3.25898
1.42975, 2.27746, -1.58555
-0.612894, 0.535366, -1.24828
1.0944, 4.14908, -3.83204
-4.96254, 0.558375, -4.69286
-2.64959, 2.21426, 3.7721
-4.93637, 3.56705, -2.82147
2.49364, 1.11752, -5.5775
3.48586, 3.15372, -7.25689
2.01621, -2.20812, -4.34493
3.01787, -0.0317318, 6.50703
-6.10286, -0.22572, -1.21277
-1.01577, 0.155749, -1.86394
-1.40307, -0.933277, -4.53737
-7.90327, -2.52957, 5.7858
-0.780122, -0.65713, 1.23927
-0.703468, -3.26801, 3.79784
-3.06501, 2.21999, -1.99314
-1.70774, 5.17301, -1.35639
5.69236, -1.17583, 3.33158
4.96639, -4.71829, -4.43792
-2.14691, 0.399668, -4.27446
-3.32207, 0.797739, -2.64761
1.92326, 0.805932, -2.45608
4.13255, 4.84383, -2.57318
2.60605, -0.531171, -4.77106
0.664177, 0.786364, 5.24887
-1.25283, 4.1255, 1.82725
3.66422, -0.0574757, 1.04064
-1.45715, 2.23409, 1.80008
1.89458, -1.82064, 3.34251
-2.17497, -2.20669, 4.44785
1.55292, -0.122954, -3.74507
-1.2281, 0.115961, 2.9623
-0.87572, 1.50536, -2.02427
-0.402955, 0.602215, -1.17363
1.32231, 5.33547, 3.13234
-0.797784, -0.210593, -4.26805
-0.130811, 2.07803, -1.70957
0.414786, -1.82129, -1.73368
0.474506, 0.901336, -5.00278
-0.722293, -0.724052, -4.54933
-0.396159, 1.46608, 3.69436
-0.638431, -4.96216, -2.11991
-0.787009, 3.0665, 6.93676
1.2924, 2.38634, 1.92225
-1.04967, -4.93567, 5.20476
0.982101, -0.117858, -1.18936
2.42999, 0.501221, 4.63949
-0.876912, 0.845567, -1.82606
2.29078, -1.3217, -2.62915
0.00129914, 0.882754, -2.75186
-0.148803, 4.47806, -4.71442
-1.33586, -0.553546, -1.98303
-1.03538, 2.74706, -4.65995
-0.262528, 0.453482, -5.97034
0.167045, -5.41181, 7.12747
2.86949, 1.16318, -2.65167
-0.733132, 0.91163, -2.3449
-0.389913, 2.57476, -0.31354
-0.748245, -0.68451, -4.50178
0.2353, -0.122769, 1.09269
-0.028848, -0.458041, -4.46784
1.09744, 3.00432, -2.5906
2.13178, 0.414779, -2.42768
-0.108376, -1.26448, 2.42748
0.520139, -1.61352, 5.01836
0.683064, 0.614608, 3.75444
2.46248, -0.864035, -4.22201
2.32073, 0.835532, -3.15421
-0.31052, 3.11539, 2.31831
1.57561, -3.62253, 6.28046
1.07305, 6.94454, 2.93349
-3.60406, 3.10486, -5.56139
-0.660252, 2.74151, -4.57447
1.90934, -2.06898, 0.673208
0.307852, 2.43145, 4.04311
3.48159, 2.48246, -5.19955
0.661069, -7.86014, -7.42141
0.682631, 1.30148, 2.50054
-3.41813, -1.94913, -1.97129
-0.784216, -1.64125, -2.07922
-1.19042, -2.49501, 2.56818
-0.665, -4.16339, -6.83729
-4.19241, 1.43938, -6.10434
-2.61809, -1.36893, 2.39243
-0.891862, 1.01677, -3.37505
-3.11092, 1.21727, 1.40484
-0.483131, -3.25432, 6.29628
0.337669, 3.66417, 3.46665
1.6418, 1.46686, -4.83972
-0.363884, -0.0263456, 2.27345
0.532607, 0.926627, -0.944715
3.46869, -2.06448, -2.79245
-1.43669, -5.45462, -3.51372
1.97745, -1.52061, 1.60874
-1.11636, 1.27047, 2.4652
0.142438, -1.35072, -3.47591
-0.803587, 1.33035, -2.14165
1.15996, 1.69663, 2.58707
1.26918, 1.48895, -3.06539
-1.78854, -5.47071, -5.96305
1.97425, -1.83824, -3.13782
-0.0507791, 0.974768, 4.10395
-0.25509, -1.96719, 5.01145
0.794417, 3.95503, -4.68429
1.14706, -0.754778, 1.62436
-1.17489, 0.332279, -4.28507
0.565956, -0.117103, 4.13664
1.15662, 0.147377, -2.03612
3.38575, 7.77548, -8.52339
-4.76819, -0.00216884, 6.91499
-0.845379, -2.92024, -4.32791
2.66906, -4.97656, -4.4293
2.18071, -0.836784, 3.80158
-1.51565, 2.34288, -0.411026
0.66144, -0.27218, 3.6146
2.17374, -2.35019, -7.80407
0.229859, 1.32736, -8.25201
-0.540868, 5.35, 5.5075
0.606049, 6.29471, -2.30394
1.54688, -0.600679, 2.69004
-0.00518789, -1.28231, -2.59465
0.749103, 3.49958, -4.0607
-0.571627, -2.19969, 1.53397
0.657324, 0.991778, 2.81529
-3.25058, 0.427507, 3.22161
-6.01888, -2.45983, -7.06252
-1.07873, 0.226376, -3.78846
1.00231, -2.18372, 2.61207
3.17, -0.357357, -2.46455
2.61892, 0.24409, -3.31283
-1.0724, 3.69096, 3.13301
-4.53368, 1.64494, 4.05113
-0.436294, -2.93648, -3.89237
1.06998, 0.0581158, 4.20026
1.13298, 1.79384, 5.79704
-3.7383, 5.34072, 4.72723
3.06589, -0.585779, -5.49779
-0.20046, 0.994629, -1.55037
1.80332, 1.85286, 3.07326
1.09833, -4.48616, 3.8298
1.80299, -1.94412, -2.73483
-0.662512, -0.994013, -1.47491
0.725724, -3.46683, -1.0075
-2.21099, -0.218346, 5.37044
4.02667, 0.689752, 5.63949
2.73858, -1.91562, -1.90149
-7.06246, 0.389576, 6.6818
2.79621, -3.40924, -2.35233
-0.265916, 1.68607, -6.22028
2.32836, 1.05505, 2.82393
-0.0418107, -0.898861, -3.12786
1.5167, -2.66416, 8.65656
-0.0183578, -3.63259, -10.4985
-0.554552, -0.359772, -6.95634
-2.05859, -1.05563, 3.84199
-6.25645, -0.959548, -6.13473
0.18754, 1.60955, 2.51557
0.391572, 0.0787621, 1.01785
-0.720555, 0.44964, -2.51925
1.72238, 2.81957, 3.22551
1.30643, -1.91923, 3.64683
-1.37593, 2.22743, -2.55079
-0.00384221, 0.366786, -3.04574
2.05767, 0.332409, 11.4901
-0.451857, -1.06053, -2.81175
-1.74531, -0.335057, 2.82199
-3.08128, 0.612301, -3.67491
-0.88152, 3.54527, -2.27592
-3.03324, 2.05005, -5.10455
-1.2777, -1.41226, 6.56346
3.16973, 3.08517, -4.14271
-0.826117, -1.69144, -2.31619
2.98739, 1.30309, 9.31644
-1.07165, -2.06266, -3.87544
3.90133, -5.08831, 5.11971
0.359404, -1.27724, 3.80548
3.48016, 2.57901, 8.49358
-0.548005, -0.980575, 2.07311
0.482036, -0.392655, 3.22836
2.67031, 1.75341, -6.33213
-2.94753, -2.11735, -3.09819
3.49476, -3.06979, -5.98615
-2.66557, 0.45795, 1.58917
-0.19467, -1.62925, 2.87401
3.43726, -0.609694, 2.47261
-3.28554, -1.55721, -4.48378
3.543, 2.78871, -2.09984
7.00171, -0.234755, 3.66912
1.34455, 2.47625, -5.30906
-0.511442, -0.498214, 2.61687
-3.39549, 3.15833, 1.92623
-0.480304, 4.461, -4.76062
0.773467, 3.71623, -2.87538
3.01072, -3.18364, 5.75059
2.04336, -1.67465, -4.31215
0.654889, 1.32801, -4.82818
-2.65099, 1.39173, -5.23149
-2.79377, 2.3236, -5.13801
-0.637727, -1.69483, 6.07499
4.64432, 10.7935, 3.67493
-0.0470349, -0.828932, 3.95258
0.126543, 0.947099, 1.58674
-0.766632, -9.92364, 2.50455
2.19482, 0.691557, -3.11197
-3.5688, -2.03691, -2.95921
1.55815, -4.27811, -1.76425
-0.589768, 1.62061, -6.05449
-1.04615, 0.968031, -2.67134
4.01741, 2.36886, 3.77384
2.49703, -1.13128, -3.37889
-1.08956, 1.44669, -2.00349
0.640268, -1.7594, 4.37912
-0.00282828, -0.444123, -1.80833
-3.66263, -2.65364, -5.01659
-2.74885, 1.74756, -3.94524
-4.92281, 1.87629, -7.36567
0.189196, -0.35568, -5.72823
-2.96495, 4.14767, 3.72419
-1.60789, 1.15573, 2.75498
3.32083, -2.17773, 5.47548
0.340075, 1.21988, -4.24089
-1.06848, -2.66412, -4.27598
-0.201354, 0.107493, -1.68463
1.73453, 0.595535, 3.66779
-3.68489, 1.83999, 1.79297
-0.712765, -2.12375, 4.61988
-2.76021, -2.68494, -1.76055
-0.619582, 0.862108, 3.60706
3.93063, -2.323, 3.40577
-2.00284, 1.06758, -2.85895
0.814766, -2.19475, 6.65166
-2.4459, -6.16985, 4.2831
4.13824, 0.848898, -6.06577
-3.60347, -2.42876, -2.60378
-0.924341, -1.22716, -3.00107
2.27873, 1.39782, -2.93618
0.47831, -0.673365, 3.50115
-0.906491, 1.13665, -0.759501
4.06662, -8.60167, 11.6876
0.761453, 0.691848, 1.89974
0.0536128, -0.00499022, -2.36
3.27963, -1.55214, 1.28578
-2.9062, 0.230166, 2.36787
-2.72284, 1.16615, 5.51906
-3.71645, -2.82964, 4.84755
-4.40497, -0.441086, -3.75606
-0.414635, 0.408911, -6.07599
-5.27933, -0.685479, -3.20773
2.04983, -0.926193, 2.82386
-0.0898523, 2.00338, -4.42627
1.55183, 0.187489, 0.900915
-0.0268401, -1.21957, -2.31305
6.01959, -3.23936, -2.80748
3.06634, -1.83169, 3.60422
0.680168, -0.76943, -2.95859
2.55736, 2.84739, -5.63133
-2.29785, 1.30066, -3.55596
-0.792648, 1.40766, 7.87845
-1.02902, -0.820407, -3.80475
-1.49904, 0.252379, 5.93448
-2.6386, -1.92067, -6.84127
-2.73297, 3.47588, -3.00325
-0.273489, 2.49613, -3.37205
1.79312, 1.37098, -3.55153
-2.98383, -0.069982, 2.93291
1.68734, 3.98127, -1.80805
-4.26282, 2.14563, -3.58955
1.79856, -1.81721, -4.576
-4.21429, -1.42359, -4.8506
-0.454411, 2.63561, 3.22308
-2.49672, 0.497621, -4.0085
-4.49274, 0.495045, 6.43113
-1.64255, 0.945171, 2.08712
-3.43707, -1.65087, 1.80222
-2.72613, 3.05226, -3.4306
0.12544, 2.87042, 3.57119
-0.39293, 1.65816, -2.45646
3.69303, -3.65709, 3.53057
2.26405, 1.61702, 2.40275
-2.96303, 3.04865, 5.25371
-1.38733, 4.49487, 5.44818
-0.669285, 0.346251, 3.70959
0.675527, -0.392238, -3.22283
0.707595, 2.39552, -5.11875
1.14662, 4.40363, -4.38457
2.17831, 1.31812, -2.46097
2.32551, -0.89296, 5.39747
-2.32749, -0.171329, -4.07517
0.0570172, 0.101528, -1.99068
-2.05865, 0.423171, -2.05528
-3.36378, -2.04944, -5.49098
1.37579, -1.32771, 2.0581
-0.667233, -0.425366, 1.05719
1.60008, 0.0339063, -4.50386
-0.193539, 0.755182, 3.74944
-1.04476, 2.27117, -6.92035
1.14499, -2.18858, -4.4139
1.30255, 0.741581, -3.72474
-0.970894, 1.53129, -3.64133
4.16279, -0.93247, 5.09347
0.760918, -1.63239, 2.11582
-0.966487, -1.16664, 2.56949
-0.419835, -0.159023, -1.70869
-4.57713, 2.15422, -2.32756
-0.38549, 4.52868, -5.25491
-3.6186, -0.293837, 3.64668
-1.52961, 0.203366, 1.68037
-1.30199, -1.58571, 4.00221
3.1624, 2.37295, 2.71709
3.09018, -0.417477, -1.99876
-0.544385, 2.09471, 1.32636
-3.73757, -0.0698387, -1.5525
-1.32042, 1.28105, -2.05954
-0.569426, 0.898591, -3.0288
2.46874, 1.60585, -3.62071
2.867, 0.988231, -3.46055
-0.7205, 1.51934, -2.16898
-2.11021, 1.69308, 2.428
-3.92854, -1.2371, 1.81537
0.530325, 2.4568, 3.62134
3.70763, -3.69362, -2.41303
3.0097, -0.234281, -6.85139
3.69865, -3.19041, 4.9917
1.11494, 0.677626, 2.23647
-0.441976, -2.55382, 6.22712
-3.32371, 2.39262, -3.28117
-0.348173, 0.346563, 6.0139
1.24078, -1.45902, 7.79049
-1.02248, 1.12791, -2.78967
-5.82054, 1.87147, -4.26489
0.476708, 0.153763, -0.843542
2.49199, 2.4771, 3.36541
-0.0425533, 0.222753, 1.59078
-1.84208, 0.559075, 4.92382
-1.524, 0.99149, 7.9583
3.18936, -7.77373, -3.51661
-0.192682, -0.90717, -2.45264
3.79649, -1.23325, 4.15594
-0.790564, -1.36307, 4.36959
0.647593, 2.55013, 2.52536
2.24212, -0.417306, -1.76771
-2.85111, -3.61103, -4.71152
3.07198, -5.37495, 1.35345
0.344201, 2.14359, 2.50394
-1.7258, 4.40431, 4.27
-2.45993, -4.27417, 4.23288
-1.10663, -0.36902, -2.14287
3.45851, 1.31281, 3.82901
-1.64153, 1.65879, -1.71946
0.865158, 5.01982, 8.83895
2.44415, -3.33329, -3.09683
1.22267, -0.0695542, 3.64453
3.967, 1.03203, -2.18664
-2.08254, -3.09539, -7.10201
-0.349298, -2.47195, -2.4238
-0.373591, -1.71315, 1.91763
1.22486, -2.84105, 1.60813
0.768429, 2.55657, -1.12574
2.22497, 0.318865, -3.20832
-3.5715, -2.6032, -3.44549
0.0552325, -3.1345, 8.52606
-0.77444, -0.48802, -4.14485
-1.17452, 3.11848, -4.02703
-5.15297, 6.49339, -7.1758
9.06611, -0.913638, -3.86991
-1.55097, 0.415959, 1.64585
-0.945289, -3.6023, -3.50857
1.12561, -1.866, -3.91078
-0.780862, 1.98076, 1.25939
-3.41534, 2.31439, -6.44722
-1.40552, -2.95549, -7.51786
-0.136986, 1.49776, -3.2371
-0.0750679, 6.28116, -5.67368
-0.543511, 6.9064, 6.57447
0.222146, 1.20876, -3.75532
-0.445846, 5.55019, 2.2229
-2.17983, -3.50337, -7.27173
0.483333, 2.13254, -1.82956
-0.650168, -2.62681, -7.34722
2.19459, -3.62959, 3.95387
9.37671e-05, -1.79789, -4.3514
0.0421228, 0.467203, 1.81696
-1.66747, -0.628968, 3.44645
2.03688, 3.08432, 6.65482
1.23065, -1.95437, -2.04665
0.651092, 1.25071, 1.77115
0.742804, -3.47246, -7.8955
0.515828, -0.471194, -1.74168
-3.40286, -6.27073, 5.10925
6.94624, 2.28592, -3.78802
-0.165943, -0.403188, -2.19822
1.33243, 1.05183, 4.62473
0.584782, -1.46743, -1.89468
-1.52609, -1.62583, 6.76049
-1.20508, -0.599645, -4.58236
2.98027, 1.20117, -2.29355
1.92479, 1.19871, -1.07935
-0.476428, -0.0193156, 2.6205
0.155959, 2.9883, 4.8811
-2.99941, 2.46264, -3.25983
2.68465, -0.151573, -4.64227
-1.96877, -0.406154, 2.48063
-1.16997, 1.64667, 2.18178
-1.30952, 0.430757, 1.74858
0.247883, -0.118472, -3.25712
1.50655, -1.83298, 3.79054
-0.421136, 0.728257, 3.77157
1.95742, -2.01507, -2.97456
0.426568, -1.09173, -4.00597
1.44644, -4.9031, 5.49312
1.75837, -0.96158, -6.58895
4.01953, -1.80085, -1.70229
-0.571946, -1.0295, -2.31254
-5.1959, 2.71283, 3.16136
-0.574844, 2.4899, -0.987789
-1.24222, -0.5616, -0.474101
3.37891, -1.76553, -0.883349
1.43561, 0.637724, -1.20971
-0.231276, 0.197021, -3.03453
-0.119992, -6.59862, -5.22343
0.36086, -1.5767, -3.14994
1.1992, 1.8627, -1.02113
4.34989, -0.568181, 2.22861
1.10088, -0.307189, -3.13336
-2.05412, -2.492, 2.62811
1.24942, -2.70718, 2.41795
-2.9621, -2.5295, -5.4134
-1.02822, 0.298711, -1.1893
0.613246, -5.17294, 3.55081
2.41114, 0.635078, 1.03358
2.14534, 2.94168, -3.05246
-5.2183, -3.76476, 7.03311
-0.22192, -1.17006, 3.95016
1.0473, 1.40328, 3.49564
6.44514, 0.0394926, -3.45886
1.26884, -4.61613, -3.64618
0.078756, -0.903973, 2.8225
1.65818, 1.73275, -6.99777
-3.51584, -1.64547, 3.04716
-2.20361, -0.0695539, -7.60942
4.35794, 0.0460407, 3.989
-3.27391, 0.939893, -1.9249
-2.95914, 2.83956, -4.44925
1.34542, 2.07507, -2.26467
7.1979, 2.35317, 1.81532
-1.15418, 0.448641, -2.08833
1.10717, 0.839586, -0.502602
-0.609017, 0.739225, 2.87734
-0.605875, 2.53153, -1.31767
0.608046, 0.360487, 2.34869
-2.00977, 1.22285, 4.93293
-1.82724, 2.11664, -4.06114
0.991736, 0.827707, -2.79102
0.000562557, 0.904956, -0.590171
-1.97507, 1.329, 2.68878
