-3.59177, -0.772154, -0.908578
-0.281585, 0.970838, -0.579758
-0.316803, 0.888502, 0.210476
0.84793, 0.0773861, -0.230726
1.12569, -0.0662944, 0.31398
-0.211234, -2.98181, -0.897288
0.268259, 0.428241, 0.575672
0.580548, 0.373886, -0.528239
0.960389, 0.0724539, -0.0604816
-0.336774, -2.03525, 0.295089
0.56474, -0.0849472, -2.8564
0.291513, 0.504176, 0.0530871
-0.452867, 0.578335, 0.80488
-0.403499, -0.712236, -1.00088
-0.115446, -1.02106, -0.687714
3.12813, 2.84559, 0.582194
-2.94404, -1.77136, -1.20682
-0.758185, 0.0620595, -0.00612236
-1.81205, 0.233745, 0.406195
-0.0128651, 0.0475335, 0.324354
-1.11967, 0.730768, -0.241774
-0.0607004, -0.0293255, -0.099626
-0.739164, 0.217693, -0.00611296
0.282409, -0.584973, -0.947766
-0.911035, 0.287329, -1.12101
0.938953, -0.485439, -0.414408
-0.689543, 0.56992, -1.28436
1.11393, 0.0495831, -0.316724
-0.40604, -0.356823, -2.09618
0.187182, -0.0955426, 0.164288
0.894998, -0.871205, -0.0513341
-0.0187092, -0.601856, -0.37526
-2.18904, 0.749627, 1.40582
0.391756, -0.160626, 0.0608597
-1.38767, -1.76509, 0.215283
0.430022, -1.93538, -1.30832
-1.33379, -0.0650296, 0.811753
-1.93881, 0.503021, 1.07174
-0.354042, 0.143052, 1.19111
0.995422, -0.212341, 0.654479
-1.8486, -0.0219205, -0.182436
-0.401378, 0.997025, 0.323547
0.420355, -1.21579, 0.362796
-0.544389, -0.296774, -0.241439
-1.21835, 0.663353, 1.23009
-0.330381, -2.99455, -1.42643
0.781838, 0.788121, -2.34544
-0.6907, -0.148588, 1.83928
0.514297, 0.31198, 0.861578
-0.0258196, -1.2657, 1.74405
-0.866997, 2.43158, 1.11392
1.04336, 0.628846, 0.431202
0.552846, -0.651778, -0.779124
-1.09719, -1.77853, -1.37894
0.701508, -0.726884, -0.390438
-0.0286171, 0.0896604, 0.00196334
-0.176345, -0.550798, 0.135715
-0.535208, 0.395961, 0.852708
1.18328, -2.73878, 2.28199
0.167311, -1.27534, 0.385298
-0.476683, -0.481063, 0.553354
0.543532, -0.456757, 0.0453539
1.64642, 0.0909089, 1.71599
-0.867456, 0.249363, 0.371622
-0.849073, -0.010801, 0.424482
0.646518, -0.63437, 0.94138
-0.826473, -1.27571, -0.966589
1.27597, -0.545086, 0.13917
0.27808, -0.00882786, 2.28177
-0.0218345, -0.27197, -0.421653
-0.483556, 0.15739, 0.244043
-0.862587, 1.2784, -1.86517
2.86326, 1.16328, 2.06205
-0.0461142, 0.414995, 0.0602121
3.19169, 0.626678, 0.688064
0.690825, -0.444634, -3.53249
0.651836, -0.820642, -0.920349
1.00568, 2.56768, -0.400089
0.549066, -0.222743, -0.140756
-0.205638, -0.245711, -0.0568147
1.51821, -0.728008, 0.464867
0.281705, -0.769008, -0.110313
1.21132, -1.9059, -1.02413
-1.36355, 1.42508, -2.84946
-0.737021, -0.90332, -1.0914
0.0334322, -1.16246, -2.9292
-1.88083, 0.568362, 0.423847
0.461233, 2.60385, 0.308387
1.40347, 3.1619, -0.46304
-0.469346, 0.443091, -0.69303
0.670906, 0.395795, 0.224901
-0.71355, -0.136946, 2.91893
0.272479, 0.494749, -0.797313
-0.394076, 1.8652, -0.167327
-0.503642, -1.76675, -1.52319
0.402036, 0.219323, -0.488755
-0.938803, -0.342299, -0.550325
1.23218, 0.835609, 1.55464
-0.0475258, 0.186111, -0.906996
0.20136, 0.251766, 0.37769
0.858626, -0.802199, -1.05094
0.221325, -0.238893, 0.0651441
-1.80648, 0.608764, 1.64188
0.497954, -0.339646, 0.521407
0.133669, 0.0397182, -2.33504
-0.169513, 0.269727, 0.422042
-0.197103, -0.41441, -0.221821
-1.62101, 0.175826, -3.01956
-0.493641, -0.941344, -0.991191
0.0104586, -2.33634, -1.1231
-0.895103, -0.572081, 0.779347
0.753051, 2.18224, -1.31429
-0.00211271, 0.096477, -0.356566
1.60004, 1.74613, -0.913587
0.309966, 0.0165935, 0.106708
0.764726, -2.53216, 0.150174
0.10996, -1.4884, -0.95293
-0.937396, -0.308302, -2.48042
-0.100719, 0.0792703, -1.94158
-1.76549, -0.386048, 0.163196
0.81177, 2.24869, -1.95994
0.50105, 0.108265, -0.569523
0.757664, 0.230389, -0.0654252
0.328308, -0.148925, 0.632432
0.640158, 1.32579, 0.757156
-0.27229, 0.592986, 0.272211
-1.09946, 2.48377, -0.474548
-0.799602, 0.358036, 0.694581
-0.189394, 1.37252, 1.55223
-1.06825, -1.34898, 0.209808
-1.06167, -0.26557, -0.000140468
0.338845, 1.14431, 0.398617
0.658718, -1.29032, -0.212006
0.48353, 1.43052, 0.193438
0.324964, -0.771873, 0.0682355
-0.0427139, -0.871182, -0.441188
0.493979, 0.563788, 0.0518994
0.198, -0.307577, 0.259884
-1.39764, -1.58648, -1.15574
0.247016, 1.07857, -2.09954
0.487551, 0.83981, 0.632225
0.433366, 0.384721, 0.417093
0.712601, 0.318096, -0.937716
1.50012, -0.0131571, -1.24612
-1.4361, 0.23805, 0.0715639
-0.196765, -0.368113, 0.971076
-0.775772, -0.0439992, 0.154942
0.00669935, -1.16811, -0.440198
0.232498, 3.34308, 0.621537
0.276866, 0.717786, -0.0510225
0.484736, -0.780612, -0.202329
0.152578, 0.34471, 0.591451
0.827292, 0.689002, 1.7307
0.0838164, -0.324206, -0.649268
-0.214754, -0.140505, 0.252398
0.751944, 1.51661, -0.694021
0.676758, -0.262547, 1.39646
0.721279, -0.943063, 0.0726962
2.4766, 1.16691, 0.00479872
-0.213972, -1.327, 0.687947
0.149765, -0.721189, 0.127137
-0.0341012, -0.541781, 1.34778
0.134084, 0.429332, 0.518714
-0.486551, 0.486288, -0.532762
-0.443419, 1.45704, 1.42916
2.54692, -0.274633, -0.222869
-0.6799, 0.298445, -1.45881
0.193065, -0.362237, 0.10124
1.4534, -1.35637, -1.58709
0.66928, -1.02741, 1.44731
0.171612, 0.41152, -0.790551
1.51598, 0.142366, -1.55728
-0.96468, -0.650299, -0.23613
0.114513, -1.92824, -0.684661
0.226841, 0.153446, -0.467019
0.246694, -2.39015, 2.34668
-0.22601, -0.0689899, -0.958386
1.89489, 0.108357, 0.0536019
1.03785, 0.361702, 0.281815
-1.409, -0.789569, 0.309337
-1.52115, -0.720714, -0.643727
-0.0297008, -0.68968, 1.40069
-0.875418, -1.98482, -0.200803
-1.08672, -0.116823, 0.0385307
-0.294057, 0.65629, -0.962517
-0.585786, 0.462476, 0.669647
-0.0193667, 0.727101, -1.34016
-1.04715, -0.918445, 0.633895
0.349228, -0.689351, -0.910026
0.227562, 0.321016, -0.152089
0.538891, 0.741118, 0.264644
-0.324696, -1.07796, -1.16477
0.190003, -0.128028, 0.152471
0.28959, 0.670913, 0.0810025
-1.64709, -0.998022, -0.477094
1.16578, -0.743302, -1.42367
0.840267, -0.88954, -1.56503
0.251962, 0.112515, -0.487275
0.0208019, -0.736163, -0.169951
-1.65903, -1.65199, -0.237034
0.704981, -2.47805, 0.20774
-0.216386, 0.126677, -0.0845056
0.0441627, 0.725175, -0.119937
-0.363653, -1.35519, -0.43316
0.189311, -1.46437, -0.0706902
-0.121919, 1.02373, -0.560656
3.66963, -1.75536, -1.79397
-0.332578, 0.31547, -0.286986
-1.90642, 0.702759, -0.756321
1.15308, 1.33092, -2.64925
0.267485, 0.187376, 1.1279
0.0816892, 0.109542, 0.0542288
-1.1514, -1.79986, -1.42621
1.03887, -0.22478, 0.234855
0.984113, 0.0772084, -0.714269
-1.04262, 0.930235, -0.916643
-0.757299, 1.58083, -0.158659
-0.190546, -0.443397, 0.470002
-0.151318, 0.0510894, 0.914607
0.593453, -0.442061, -0.464421
0.824994, 0.575025, 0.0297296
0.513472, -0.149904, -0.334214
-1.04551, 0.216407, 2.12034
1.78936, -0.691386, -0.620797
1.82746, 1.72134, 1.46748
0.754999, -0.396369, 0.320984
-1.16276, -0.427547, 0.298966
-0.186972, -0.486671, -0.738787
0.213588, 0.0858445, 0.219369
-0.577607, -0.0709581, -0.55576
-1.90682, 3.42912, 0.588445
0.622374, -0.394986, 0.267668
0.312664, -0.193605, -0.767441
1.05502, -1.56169, 1.68951
0.799674, 0.718606, 0.0101943
-0.467441, -0.743911, -0.543111
-0.00757885, 0.597788, 0.730282
0.294568, -0.353656, -0.104767
1.40224, 1.11438, -0.110332
-0.725756, 1.0786, 0.598138
0.465908, -0.879135, -0.402842
0.359212, -0.270221, -0.670387
0.11012, -0.706445, -1.05189
0.468795, 0.184135, -0.721931
0.123929, -0.843802, 0.462326
-0.313365, 0.0449533, 0.872477
0.235402, -0.562341, -0.0255973
1.38921, -1.44585, 0.12522
-0.128673, 0.760907, -0.374214
0.612967, 0.421872, -0.791277
0.0188972, -1.61363, 0.987983
-0.183591, -0.481578, -1.13025
-1.98665, 1.00848, -0.354112
-0.397975, -0.762088, -0.475105
-2.54291, -0.087299, 1.1743
-0.466071, 0.0546956, -0.268364
0.263836, -3.2603, -1.91194
-1.15662, -0.907598, 0.357681
-0.0165546, -0.138738, 0.480354
0.0254444, -0.134539, -0.170838
-0.441147, 0.229213, 0.271416
-0.203782, -1.31962, 0.0246936
-0.109993, 2.79108, -2.04299
1.01718, 0.0816596, -0.823675
-0.0609693, -1.57358, -1.05825
0.260535, -0.188082, -0.13177
-1.02748, -0.181899, 0.419443
1.65236, 0.103136, -0.360852
-0.918549, 0.992312, 2.31409
0.0627743, -0.714915, -0.372219
0.0835729, 0.267352, -0.0883996
1.4819, -0.323399, 0.752535
0.79108, 1.62845, 0.948373
0.350789, -0.364352, -0.334723
0.072154, 0.570854, 1.66302
0.281801, 0.475118, 0.377052
-0.592767, -1.48547, -1.79924
0.347383, -0.836305, -0.0338029
0.168558, -0.0625947, 0.57526
-0.573193, -1.15909, 0.614486
0.196103, -0.324572, 0.838761
0.519227, -0.361918, 0.290229
0.0589481, -0.792796, 0.851435
-0.099644, -0.592755, 1.82058
0.991802, -0.166868, -0.562302
-0.861977, -0.288892, -0.325033
-0.931654, 1.42533, -0.585847
0.00858443, -0.0844659, -0.177692
1.07917, -1.88309, -2.14862
0.375594, 0.576722, -1.06397
-0.0818036, -0.0839752, -0.596341
-0.233665, -0.462243, -1.28731
-0.383467, -0.33237, 0.469334
-0.832877, -0.475234, 0.0609059
0.496142, 0.123087, -0.449007
0.144233, -0.169941, 0.312919
-0.449191, -1.2383, 0.185486
-0.353887, -1.67927, 0.827956
-0.366976, 0.5204, 0.0690046
-0.067572, -1.16854, -0.592426
0.400386, 0.469232, -0.0680946
-0.16096, 1.01908, -0.363287
1.4738, 1.94161, 0.156425
1.84109, 0.178004, 0.65081
1.48848, -0.397409, 0.42343
0.639978, 0.163799, -1.06964
0.409966, 0.0617617, 0.666211
0.698233, 0.15366, -0.226145
0.518377, 0.204547, 0.0285924
0.322854, 6.03745, -1.79601
0.803409, 0.334159, 2.14877
0.185104, -0.569965, -0.109901
-1.31632, -0.684933, -2.54547
1.63408, 0.96672, 1.33695
0.305796, -1.83906, -0.428235
-1.48377, 0.356025, 0.438168
0.246218, -0.23178, -0.439486
-1.61667, -1.40282, 0.709969
0.277537, 0.0665304, 0.0392855
0.144535, -1.63779, 0.125614
1.00066, 0.0999579, 0.177137
0.146655, 0.405172, -0.0291689
-0.71887, -0.216294, 0.757351
1.07233, -1.28177, -1.21801
-0.945855, -1.70374, -0.42392
0.0316317, 0.800585, -0.201439
-0.821686, -0.480874, -0.891215
-1.84565, 0.834535, 0.464737
0.0393501, 1.88241, -0.783129
-0.631168, 0.561719, -0.478421
0.435775, -0.578573, -0.316927
0.708721, 1.56821, 0.100878
-1.23843, -1.16291, -2.31128
-0.691108, -0.0763147, 0.554958
-0.934601, 1.00504, 0.973893
-0.224766, -0.861934, 1.05197
1.58842, 0.796411, -2.18885
-0.0639526, -1.12717, -0.0644932
-0.43369, 0.207094, -0.176894
-0.504478, -0.938307, 0.699562
0.692985, -0.447477, -1.79256
-3.02939, 1.28483, -0.459031
0.778693, -0.359887, -0.242165
1.05322, 0.120549, 0.068615
1.539, -1.97443, -1.63195
0.29818, 0.4301, -0.186761
-1.41953, 0.960265, -1.3577
-0.168525, 0.119958, 0.600309
-0.210042, 0.559702, 0.409397
0.0976102, -0.64645, 0.409502
0.296166, -0.346099, -1.13921
1.59832, 0.157869, 1.1357
-1.13336, -0.149301, -0.450809
-3.24071, -0.638612, 0.0681887
0.216602, -1.22744, 1.04208
1.03992, 0.353315, -0.200626
-0.888724, -0.39371, 0.144285
-0.296314, 0.255416, -0.67694
0.696147, 0.844683, 0.409265
1.17482, -0.53652, -1.51543
-0.643792, -0.948986, -0.392306
1.19796, -4.56787, 0.470509
-0.885392, 1.43077, 1.79191
1.77373, -0.12025, 0.82158
-1.09249, 1.24883, 0.648283
-0.722025, 0.198497, 0.340902
0.547681, 0.194471, -0.191555
-0.214088, -0.187369, 0.481862
-0.207339, -0.607533, -1.40967
0.711011, 0.0525045, -0.187882
-0.0658607, -0.0685684, 0.224633
1.41015, -2.38771, -0.597921
0.492355, -0.169969, -0.40299
0.0438815, 0.745368, 0.744682
-0.278137, 0.835732, 1.10714
-0.627109, 1.6488, -0.800664
-0.0201097, 1.5867, 0.326231
0.195486, 0.0190271, 0.483501
-1.29418, 1.58237, 0.90044
0.297367, -0.366985, 1.69707
1.46048, 0.261264, 0.243396
0.36852, 0.218062, 0.6319
-1.66056, 0.478104, 0.457519
-3.26194, 0.301902, 1.32343
1.02418, -0.284326, -0.440995
-0.76407, 0.235023, 0.0838639
2.0685, 0.706152, 0.255302
0.465963, 0.793565, 0.904737
0.444461, 1.13667, 0.801188
-1.52608, -0.347478, -1.69156
-0.22119, -0.984525, -1.09057
-1.59268, 0.644526, -0.074938
1.81775, -0.890766, 2.64994
0.401853, -1.69121, 1.28785
0.55542, 0.178965, 0.554016
-0.520995, 0.666267, 3.63799
0.194095, 0.0453677, -0.243544
1.99835, -0.75393, 1.79634
1.04198, -0.279226, 0.614423
-3.8792, -0.612611, 0.859364
0.610118, 0.576064, 0.532889
0.982402, -0.595375, -0.226966
1.10342, 0.812346, -0.573234
0.965314, -0.411594, -0.799847
1.37533, 0.62746, 1.88676
0.0968398, 1.35404, -0.173884
0.368583, -0.394629, -0.510009
-1.06385, -0.263688, 0.933233
1.28975, 0.936127, -0.20772
-0.0980272, -0.388858, 0.715339
-0.224728, 0.219274, 2.59537
-0.00584631, -0.822547, -1.00311
-0.59071, -0.376099, 0.939917
1.04572, -1.14898, 0.315271
0.460476, 1.47534, -0.132135
-0.304948, 0.983904, -1.24263
1.35934, -0.914915, -0.0558722
0.0226211, -1.20081, -0.998223
0.823948, 0.000607904, -0.298864
1.30611, -1.36147, 0.13947
-3.21983, -0.555458, -1.83195
-0.0288785, 0.55312, 0.293897
-0.544875, -0.281631, -0.0187988
0.60869, 0.708689, -1.65066
-0.181474, -0.027458, 0.94632
-0.73666, 0.155976, 0.699538
-2.30304, -0.308994, -0.394228
-0.723921, -0.0677153, -0.94734
0.23338, -0.526825, -0.108419
0.0208645, 0.989665, -0.409439
1.18884, -0.263682, -0.348095
0.397514, -1.80849, -0.502681
0.33607, 0.943733, -1.05594
2.52965, -1.62154, 0.324394
-0.154096, -1.42438, -0.302618
-2.08129, -0.199749, 0.38698
-0.847264, 0.678817, -0.203827
2.54395, -0.983409, -1.78895
0.867844, -1.28762, 0.611136
-0.125192, -0.662032, -0.801438
-0.720583, -1.30903, 0.124299
-2.79417, 1.35558, -0.277661
-0.572398, 0.0473154, -0.746166
-1.29743, -1.7038, -3.41989
0.165603, -0.0419408, -0.619665
-0.418073, -0.852322, -0.724605
-0.0459844, -0.454907, 0.157001
-1.89143, -0.357187, -0.350996
-0.9742, -2.54721, -1.04005
1.10896, 0.274805, 1.68975
0.967779, 0.843168, -1.20649
0.807192, -1.33873, 1.17655
0.730092, 2.78234, -1.10911
0.861606, -0.123098, -0.0342401
0.525305, -0.330346, -0.605615
-0.686025, 0.411432, 0.623014
0.557255, -0.254815, -0.155754
-1.35457, 0.826384, -1.1171
0.983655, -0.918035, 0.30614
-0.617518, -0.0687874, 0.663911
-0.980199, -1.52895, 0.75557
0.706509, 0.128859, -0.118318
-1.0301, -0.204644, -1.37734
0.766748, 1.06202, 1.93091
-1.59812, -1.12677, -0.961586
-0.750154, 0.150295, -0.0452959
0.940931, -1.78811, 0.325786
0.722848, 0.565606, -0.360434
-1.01599, -0.481579, -0.263772
0.647268, 1.14148, -0.411019
0.612341, 0.6039, 0.389434
-0.278946, -0.642038, -1.46985
0.360346, -0.161194, -0.414768
-2.12224, 0.705348, -0.110119
0.327391, 0.548453, -1.11877
-1.3919, 1.79323, 2.02687
-0.239743, -0.0703587, -0.0337273
0.0612283, -1.22092, -0.418784
1.74758, -1.48814, 0.32626
-0.276764, 1.40259, -0.330365
1.02908, -0.345637, -0.466147
-0.194582, 0.0448784, -2.25271
-0.26334, 1.30021, -0.14949
0.373981, -0.513695, 0.631479
-0.681299, -0.673972, -1.42851
-0.981545, 0.794709, 1.84773
-1.57198, -0.286467, 1.32413
-0.0103296, 0.295785, 0.141329
0.0598418, 0.129031, -0.192675
-0.645745, 0.350063, 0.982112
1.01533, 0.810518, -0.215113
0.767591, 0.198537, 1.4821
-0.828723, -0.226156, 0.556622
0.466641, -0.441376, -0.00995498
0.803052, 0.188745, -0.196176
-0.319019, -0.62878, -0.463844
-1.66107, -0.304854, 1.70808
-0.883298, 0.305575, -0.413158
0.474722, -0.24541, 0.888555
0.556113, 0.823532, -2.07043
0.192522, -1.82584, -0.554172
0.0128119, 1.50678, 1.03342
-0.71844, 1.39117, 0.210515
-0.1199, -0.339499, -0.355132
-0.790453, 1.52059, -0.170041
0.204293, 0.202202, 0.394918
0.319454, -1.95314, -1.19185
-0.146978, 0.115457, -0.315372
-0.820379, -0.585136, -1.37426
-2.52848, 0.307573, 1.6388
0.0392273, -0.4435, -0.12862
-0.425607, -0.984048, 1.88504
3.46762, -1.42745, -0.687054
-1.03321, -0.562505, -0.859623
-0.740576, -0.232744, -1.18569
0.135159, 0.0695839, 1.14783
0.0784899, -0.281611, -0.250553
-0.180478, -0.826609, 0.669377
-0.347793, 0.107178, -0.431098
0.95678, 0.0205267, 0.121982
-1.51942, 0.424676, -0.0999667
-2.9494, -0.302379, 0.370021
1.72062, -0.791473, -0.972157
-1.14358, -1.06487, -2.92977
-0.23992, -0.548878, -0.0992579
-0.735438, -0.314288, 0.975551
-0.8237, -0.805876, 1.29399
0.494122, -0.0206995, -0.68809
0.533114, 1.1224, 0.718828
1.15479, 0.437881, -0.0390559
-0.221334, 0.398249, -0.133119
-2.39584, -0.818969, 2.08403
-0.165018, -0.746851, 0.557641
-0.0199728, 0.330703, -0.00727228
1.02466, 1.40656, 1.62933
-0.0447938, -0.359521, -0.397723
0.141889, 0.679197, -0.404573
-0.254147, -0.0618214, -0.535622
0.663289, -0.983623, -0.496039
0.689758, -0.389569, 1.42534
1.12811, -0.970719, -0.287022
-1.24654, -0.313745, -0.404581
0.165293, -0.030006, 0.196244
-0.0953331, 0.0986996, -0.103824
1.06028, 0.715577, 1.31108
0.297731, -4.23744, -0.926493
-0.0407783, 0.460567, -1.00957
1.57136, 1.33597, 0.314263
2.48812, -1.18273, -1.88887
-1.30133, 0.249969, 0.531299
-0.971819, -0.434787, -0.755905
-1.08853, 0.479063, -0.0260683
-0.00955445, 0.0723622, 0.187623
0.574844, 0.498547, 0.833093
-0.482126, -1.06488, -0.188621
-1.06421, 0.205684, 0.323421
0.62277, -0.221542, -0.0914421
1.06673, 0.481422, -0.26133
-0.193269, -0.346277, -0.151644
-4.60516, -0.960918, -2.24998
-0.160247, -0.945926, -0.78834
-0.298731, -0.28403, 0.293072
-0.17056, -0.0962051, 0.681882
0.305248, -0.23418, -0.663133
-0.425382, 0.49532, -1.77503
0.67811, -2.5287, 0.021323
0.607106, 0.659006, 0.358584
2.85272, -1.03203, -0.376071
0.683947, 0.86601, -0.376365
1.17063, 0.299326, 1.8221
-0.504465, -0.148346, 0.964083
0.0851619, -1.59768, 1.67674
-0.683364, 0.593109, -0.307785
-0.458577, 0.936754, -1.38576
1.44413, -1.82141, 0.422072
1.01024, -0.177173, 1.40013
-0.463027, -0.442401, -0.62912
1.62117, -0.0417656, 1.47591
-0.49191, 0.461178, 0.745423
0.782204, -0.747297, -1.39287
-1.07837, -0.779609, -1.6043
-0.845398, -0.402935, 2.49791
1.08656, -0.14179, 0.41881
0.567402, -0.515482, 0.683474
0.812545, 0.325031, 0.0685832
-1.34293, 1.13258, 0.397851
-0.342674, 1.42683, -0.605223
0.00749893, 1.60883, -0.129187
1.01687, -0.335954, 0.825262
0.0657275, -0.730397, 0.392421
-1.00818, 0.0997502, -0.58386
-0.256555, 1.41438, 0.569047
-0.467677, 1.34188, 0.800861
-0.0617416, 0.78303, 0.906035
-0.180631, -0.978588, 1.49776
0.502752, -0.00810744, -0.347404
1.02635, 1.66763, -2.07712
-0.406228, 0.182056, 0.608729
1.70446, 0.712878, -0.256147
-0.341332, 0.31926, 0.257474
0.624206, 0.26005, -1.87162
-0.063085, 0.640857, 0.362677
-0.0348781, -0.087723, -1.00422
-1.33211, -0.211668, -0.674797
0.0290281, 0.575924, 0.463747
0.684383, -1.02139, 1.23055
-3.06426, -1.61811, -0.00825573
-1.72979, -1.40851, -0.410964
-0.919998, 0.260122, -0.557749
0.305143, 0.458819, 0.539388
-0.707302, 0.986292, 1.32017
0.267319, 0.876659, -1.47785
0.312614, -0.383346, 0.0822947
0.598253, -1.08651, -1.19011
0.159076, -1.40255, 2.15458
-0.348294, 3.44085, -0.105564
-0.876761, 1.30979, 1.47701
-0.565816, -0.799263, -0.296314
0.810007, 1.78326, 0.569859
-0.702355, 0.666882, 0.616089
-0.105867, -0.430793, -0.146767
-0.820414, 0.431652, -0.392889
-0.212081, -1.99476, -0.759965
0.40789, 1.16812, -0.0525188
0.778389, 0.894824, 1.59706
0.978313, 1.01897, -0.865615
-1.37635, 1.86921, 2.18439
-0.557268, -0.425342, 0.97831
0.544885, 0.233515, -0.366668
0.0245922, 1.54833, -2.27879
0.281419, -0.508279, -0.220721
0.100836, -1.21655, 0.13359
-0.543658, -0.749088, 0.198275
-0.0611542, -0.711036, 0.22025
0.34237, -1.45648, -0.332925
-0.582241, -0.384426, 0.61467
0.0404563, 0.551872, 0.483374
0.195307, -0.139223, -0.548252
0.0654596, 0.148765, 1.08358
-1.40046, 0.911859, 1.49402
0.707112, 0.952827, -3.01483
0.70632, -0.0152706, -1.10332
0.185566, -0.0927191, 0.20561
0.670786, -1.21388, -0.507844
-0.319046, -0.134515, 0.3228
-0.227216, -0.830094, 0.211394
-0.164383, -0.166927, 0.548278
0.883545, -0.726847, 0.252569
2.08375, 1.12066, 0.0666988
-0.177414, -0.441684, -0.81268
-2.05123, 0.759135, 0.771808
2.17325, 1.16793, 1.44098
0.00755468, 0.377404, 0.665134
-1.08233, 1.22791, -0.527941
-0.980179, -0.169125, -0.947854
-0.607975, 1.04286, 0.610487
0.191244, -0.107792, -0.437413
-0.530843, -0.0158937, -1.01967
-0.695009, -0.0516279, -0.689732
-0.107075, 0.406901, 0.151593
0.204573, -0.115224, 1.78481
-0.646744, -0.321306, 0.837227
0.533273, -1.07599, -0.217942
0.355084, -1.27448, -1.41989
-0.380674, -0.511958, 3.17178
-0.920823, 0.0129478, -1.96314
-1.40252, 4.46049, 3.33058
-0.0119333, -0.60616, 0.358024
-0.0333835, 1.76566, -0.156749
0.201776, -1.03366, -0.134216
3.17188, 1.74339, -2.53487
0.222496, -0.773911, 0.629651
1.83456, 0.0859911, 1.0807
-2.44568, -1.56212, -0.427401
-0.321034, 0.695721, -0.862609
-2.74417, 0.664424, -1.70656
0.487485, 0.061561, 1.26065
0.231722, -0.26094, -0.561655
0.334699, -0.617604, 1.86532
-1.8134, 0.30696, 1.74497
0.475955, 0.151724, -0.0771651
-1.05156, 1.2386, -0.159915
0.672611, -2.08833, -2.80305
1.12523, 0.732532, 0.389078
-0.28485, 0.312486, 0.266813
-0.897375, -0.00898065, 0.376167
0.433031, 1.16789, -0.065402
0.127811, -1.79076, 1.29907
-0.341492, -0.198838, -0.394889
1.79074, -0.639261, -0.315662
-0.932915, 0.755382, 0.145475
-0.110969, -0.0638358, -0.207547
0.36982, -0.595595, -1.35385
0.0449251, -0.381077, 0.8997
-0.23762, 1.05805, -0.998158
-0.51046, 1.38445, -1.85745
0.506156, -0.596812, -0.0460374
0.602275, 0.475414, 0.277512
1.56569, 1.03839, 1.33629
1.06205, -0.623951, 0.312922
1.92764, -0.745621, -0.370086
0.281738, 0.173513, -1.28447
0.0523734, 0.452584, -0.730013
0.796196, 0.337521, 0.610062
-0.393202, 0.977825, 0.904428
-0.37298, -0.189524, 0.134617
-0.287604, -0.503797, 0.331385
-0.376537, -1.25945, -0.343343
-0.243951, -0.667375, -0.199528
-0.863822, 0.216649, -1.35325
-1.55853, -0.0413324, 0.975799
-0.109902, 1.49662, 0.417597
1.71179, -0.254543, -2.29629
-2.10871, 2.78558, -0.512943
0.282332, 0.034237, -0.113386
-1.93672, -0.220871, -0.725559
-0.377263, -0.380803, 0.483258
-0.618388, -0.0706083, -1.10721
-0.241174, 0.91549, 0.82711
-0.381187, 1.6592, 0.963833
2.3864, -1.25245, 2.32141
0.794623, -0.274086, 0.276993
0.573492, 0.51491, -0.172222
0.0780841, -0.602543, -0.624557
-0.299738, 0.647111, -0.740675
0.430795, -0.820052, -0.879832
-0.475371, 1.10821, 0.495756
-0.905644, -0.716737, 0.164586
0.0303675, -0.826792, -1.01859
0.513279, -0.378744, 1.08693
-0.00812041, -1.98906, -1.34941
1.13435, -0.848603, 0.0707309
-0.676514, 0.0190129, 0.0354965
-1.49963, -0.200646, -1.08787
1.45512, -0.741697, -0.138671
0.251867, -0.248839, -0.47475
1.44373, -0.244947, -0.143201
0.476421, 0.177671, 1.35431
-0.118726, 0.0775617, -0.643048
-1.08869, 0.641734, -0.343293
0.468943, -0.143374, 2.28106
0.236022, 0.616491, -0.232076
-0.306854, -1.91916, -0.0645665
-0.787822, -0.246024, -0.425869
-1.8733, -0.0345507, 0.864203
0.0986067, 0.384914, 0.47052
-0.669753, 0.938993, -0.527414
0.635587, -0.139417, -0.25359
1.78602, 0.132789, -3.04785
0.850252, -0.647107, -1.36381
0.948069, 0.968695, 0.217124
3.97112, 0.993573, 1.13398
-1.15106, -0.743271, -0.516456
-0.850722, 0.493584, 0.512647
-0.0521818, -0.558686, 0.46418
0.205113, 0.54562, 0.688475
-0.792641, -0.163246, -0.0555172
-0.460589, 1.02042, -1.33296
1.89593, 0.508741, -0.228237
1.01323, -1.32502, 1.54034
-0.395434, -0.237911, -0.112454
0.454389, -0.909645, -0.204486
-0.860637, -0.469321, -1.24058
-0.673249, 1.63043, -1.26153
-0.158315, 0.503195, 0.870812
0.789106, -0.0552651, -0.162796
0.129712, -0.366918, 0.607694
1.63951, 0.013163, 0.301369
1.12914, -0.0818004, -1.77055
-0.612951, -0.66849, -0.502102
1.68322, 2.79681, -0.574813
-0.161205, 1.44643, 1.29057
-0.581443, 0.614086, -0.456857
0.0718765, -0.243133, 0.747063
0.251711, -0.904983, -1.11992
-0.699532, -0.268781, 0.992072
0.734586, 1.21811, 0.457632
-0.717142, 0.74903, -0.817938
-0.760046, -1.63277, -0.204684
0.681534, 0.121855, 0.575879
0.193352, -0.00399725, 0.308888
1.29105, 0.446806, 1.01029
0.554925, 1.0338, 0.623415
1.48859, -0.337198, -1.97207
-0.191622, 0.86225, -0.808015
0.17452, -0.284545, -0.722986
-0.690376, -0.829218, -0.683286
-2.12594, 1.42887, 1.79749
0.11082, -0.629953, -0.492071
-0.364878, 0.145203, 0.479487
-0.140421, -0.943222, -0.266182
-0.303209, 1.58101, 0.583025
0.359705, 1.16512, 0.234642
0.0253418, -0.0312007, 0.398097
0.276267, 0.354216, 0.930522
-0.349954, -0.627469, 0.55828
0.548019, -0.66317, -0.540439
0.373758, -0.604354, 0.755929
0.340031, -0.847722, 0.689608
0.390515, 3.9307, -0.0839257
-0.434355, -0.543391, -0.330069
1.74676, 0.19794, -0.341272
3.62803, -1.32274, -0.0177675
0.0610382, 1.3511, -0.0501258
1.44823, -0.265457, 0.620345
1.0353, 0.00454112, 1.27875
-0.600216, 0.0136548, 0.39279
0.337877, 0.612747, -0.363742
-1.24696, -2.00738, -3.04791
0.419619, -0.136011, -0.0585004
-0.25297, 0.14272, 0.384921
1.48627, 1.41822, 0.254668
-0.222219, 0.722946, 0.463055
-0.0586076, -1.08384, 0.663402
0.691724, -0.238735, -0.0614266
-0.100566, 1.23122, 0.495673
-0.886159, 0.46658, 0.321437
-0.458578, -2.67484, -2.61414
-0.0851749, 0.432689, 0.552179
1.08747, -0.806591, -0.500554
0.197359, 0.0343552, -0.350535
-0.555003, 0.716925, -0.328835
2.86237, -2.04159, -0.685225
0.721346, 1.56384, 1.19902
-0.322634, -0.360201, -0.418263
-0.00932781, 0.11606, -0.683805
0.033697, 1.37052, 0.782817
-0.0421432, -0.0945344, 1.20572
-1.81289, 0.37613, -1.63482
0.398903, 0.168421, 0.00753604
0.649414, -0.128989, 0.458481
-0.938601, 0.910558, 1.91827
0.405468, -0.259883, -0.413808
-0.193702, -0.187559, -0.845699
0.0497989, -1.54589, -1.25273
-1.91372, -0.101508, 0.827758
-1.3579, -0.63366, 2.92361
0.306055, -1.34777, 0.135153
-0.896893, -2.86108, -0.807477
0.201214, -0.0343654, -0.302819
-2.80962, 0.93122, 0.357158
0.828705, 0.185407, 0.497231
0.0418183, -0.799085, 0.0138535
2.22011, 1.06924, 0.0585647
2.17593, 1.05137, -0.281381
0.703611, -1.38549, 1.82654
-1.52637, 0.0441736, -2.00939
-0.304778, 2.6336, 1.23541
-0.670851, 1.86536, -2.97001
-0.191123, 0.381997, -0.286087
0.933562, 1.69347, -0.143275
-0.0488131, -0.70315, -0.670955
-2.35429, -1.86555, -0.539685
0.693565, -1.2545, 0.746669
-0.619625, 0.430249, -1.05987
0.520731, 0.188754, 0.358058
-0.465039, -0.0522368, 0.49606
2.25862, 0.0885806, -0.611088
0.223961, -1.09197, 0.587518
-0.391705, 0.266162, 0.596106
0.253564, -0.646901, 0.0281124
1.85299, 1.36284, 0.916312
-0.87484, 0.144522, 2.17802
-1.17355, 0.908274, -1.43246
0.730982, -0.0468186, 0.305696
-1.10028, -0.0672308, -0.887538
-0.291438, 0.559422, 0.484586
-0.305914, 1.04268, -1.23936
2.13482, -0.224901, -0.419093
-0.949216, 0.804182, 1.01387
1.92145, 0.617193, -1.45094
1.53083, 0.127105, 1.76722
-0.616245, -0.191715, -0.133631
-0.35791, -0.935018, -0.763892
-0.315551, -0.36974, -2.83523
0.0818432, -1.74329, -0.534325
0.134883, 2.23293, 0.0361527
1.23985, 3.08403, -0.215181
-1.88384, -1.28203, 0.800692
-0.248564, -0.313006, -0.406137
0.352073, 0.547389, 0.338102
0.529277, -1.90203, 0.0527431
0.684753, -0.994158, -0.215499
-1.73307, 0.922729, -0.189072
0.2736, -0.243786, -1.33408
-0.846274, -1.43584, -0.272553
0.284977, 0.604211, 0.180678
-0.00378253, -1.55863, 0.135194
-0.0646609, 0.0476161, -1.2195
0.225253, -1.49847, -1.23322
1.05212, 2.04594, 1.34346
1.84176, 1.94468, -0.619593
-3.06906, -0.0990976, -1.29362
-1.15811, -0.0547555, 0.438616
-0.793427, -0.440706, 0.492008
-0.0144312, 0.148956, 0.116891
-0.498844, 0.467788, 0.0186465
0.142706, -0.768692, 0.661698
0.664226, -0.897629, 1.22035
-0.0104318, -1.37622, -1.20992
0.367792, 0.801106, -0.737705
0.90328, 0.478998, -0.259687
0.108421, 0.546889, 1.63464
-0.897976, -3.19247, -0.713274
0.68389, 1.13478, -0.84881
0.281719, -1.2129, -0.775621
-0.551539, 0.549801, -0.091476
-0.279708, -0.912565, -1.19297
-1.21085, -0.0575258, -0.327108
1.00311, 0.737021, -2.08502
-0.61783, -1.63091, -0.345895
-0.638473, -0.364775, 0.255275
0.0146405, 0.395369, 0.873106
1.11482, 0.290808, 0.110148
0.516233, -0.685933, 0.493809
1.05859, -0.513946, 0.281522
-0.427856, 1.5935, 1.88554
-1.37243, -0.370599, 1.32981
0.548642, 0.23884, -0.0184257
1.38221, -1.29181, 1.62633
1.51792, -0.731149, 0.0673329
-0.878425, 0.464766, -1.01316
-1.05649, 0.39608, 0.24372
0.866767, 2.02299, -0.737719
0.215825, 1.02622, -0.705547
0.483267, 0.321121, -0.185525
-0.172753, 0.632929, -0.77072
2.23682, -0.894818, 0.754545
-1.44867, -0.889858, 0.0392981
0.0943372, 0.000405748, -0.52342
-0.0789183, -0.0203271, 0.198422
-0.220883, -0.391029, -0.235231
-0.40696, 1.36721, -0.724048
1.51555, -3.27084, -2.50097
0.0765359, -0.624471, -0.321523
0.0769158, 1.63405, -0.995719
-1.17993, -0.101436, 0.997298
0.285331, -0.322493, -0.225981
-0.378113, 0.77303, -0.592869
-0.192166, -0.0852982, -0.485693
-1.18282, -0.998989, -0.0581388
-2.57405, 0.212934, -1.43599
-0.249286, 0.595363, 0.700257
0.109263, 0.991645, 1.27216
-0.531797, -0.554695, 0.725499
0.342443, 0.939373, -0.17356
2.63899, 2.67424, 0.926531
-0.815681, 1.62652, 0.911193
0.676798, -1.18363, -0.258513
-0.736425, -0.411583, 1.71428
-1.44019, -0.702065, -0.6126
-0.994329, 1.23935, -2.04136
0.792823, 1.61333, 0.492913
-0.360024, -0.214568, -0.25951
2.31487, -0.45927, -0.0644132
-0.391913, -0.984808, 1.30248
-0.251084, 0.545569, 0.310952
-0.95935, 1.78183, 2.09269
-0.597039, 0.0959258, -0.820953
-0.661801, -0.130468, -0.490398
0.688531, 0.156854, 0.462705
0.414309, -1.19896, -1.39266
0.105708, -0.195323, 0.563442
0.00636675, -0.365439, 0.017387
-0.746843, -1.73889, 1.41048
1.44141, 3.80122, -1.22642
-0.262419, 0.739953, -1.44058
0.649538, -0.148662, -0.485352
-0.425505, 0.309037, -1.1043
-0.527603, -0.19632, 0.314951
-0.281744, -0.650431, -0.319938
-0.876963, 0.0947555, 0.207037
1.68586, -0.916108, 2.07277
-0.752494, 0.778184, -0.639178
-0.183559, 0.307191, 0.000534387
-0.393464, -1.18518, 1.37815
0.0698241, 0.934439, -0.810418
-1.67583, -0.330224, -0.334624
-2.51577, -1.54142, -1.9195
0.686905, 0.12836, 0.353304
-0.987253, -0.517048, -0.133542
-0.18014, 0.266682, -0.280187
2.20421, -0.546877, -0.00271521
1.62232, -0.98897, 1.01803
0.382662, 0.098193, -0.135875
0.871515, 0.370219, 0.924805
0.884606, -0.425353, -1.14575
-0.915299, -0.0640462, -0.316361
0.571869, 0.315915, -0.533442
-0.56564, -0.260688, -0.833689
-1.33916, -0.870437, -0.583875
-0.188141, -2.08788, 0.444752
0.784763, 0.565922, 0.164645
0.028274, -0.0583777, -1.10861
0.855534, 0.0924383, 1.27042
1.46933, 0.284825, -0.0424232
0.184253, 1.13846, 0.0613067
0.425123, -0.693389, 0.642154
0.967619, 2.23704, -3.28317
0.106789, 0.13557, -0.105098
-0.282991, 0.0467766, 0.00397212
1.25852, 2.25787, -1.66991
0.933105, 0.58699, -0.811045
-1.03647, 0.758416, 0.270534
-0.787798, -0.674998, -1.48721
-1.44483, 1.22367, -0.304903
0.280272, -1.77461, 2.26023
0.610609, 0.557271, -2.08705
-0.884279, 1.60554, -0.472671
1.14402, -1.44305, -1.0703
1.19883, -0.0401794, -0.0515701
-2.76328, -0.349609, -0.93122
-1.01281, -0.204285, 0.358312
-0.997952, 0.66603, -0.587233
-0.667492, -0.838922, 0.149469
0.44655, -1.10535, -0.144109
-0.489628, 0.229391, 1.01943
-0.422011, -0.5684, 0.883262
-0.39244, -0.480765, 1.26782
-0.209902, -0.601532, 0.250097
-0.33386, -0.354345, -0.145947
1.77377, -0.709868, 1.04202
0.533789, 0.168544, 0.102114
0.969523, -0.914413, -0.0276513
1.04728, 0.45917, -0.296631
0.40583, 0.695215, 0.454797
0.94519, -1.60737, -1.19692
1.8899, 1.59553, 0.751947
0.616461, -0.125862, 0.0760177
-0.936651, -0.0596193, -0.12826
1.91367, -0.294195, -0.174749
-2.19346, 1.34498, -0.275489
0.254495, -2.82639, -0.553208
-0.947267, -0.754668, 0.0558015
1.49156, 0.757296, -0.774941
0.400671, -0.193972, -0.478267
0.417856, -1.06643, 0.751328
0.0626754, -0.80245, -0.238257
0.717205, 0.288566, 0.147844
1.38637, 0.630322, 0.156635
0.291074, -0.071229, -0.622376
0.0311537, 0.878272, 0.0842785
1.66206, -1.96486, 2.64456
0.318227, 0.464964, -0.369061
1.45016, 0.1513, -0.960671
0.222814, -0.22497, 0.777053
2.01672, -1.35451, 1.42276
-1.17073, 0.293822, 0.819325
-0.797407, 0.590285, 0.0241114
-0.205869, -1.19512, -0.017802
-0.559907, -0.30323, 0.0147256
-0.162903, -0.421655, 0.412417
-0.3394, 0.887765, -0.157406
-3.5431, -2.25713, 0.656701
-0.42148, -0.207392, 0.506508
-0.584058, 0.25243, 1.5941
0.952922, 0.202749, -0.0833096
-0.536433, 2.05696, -0.46911
1.00558, 1.93649, 1.85404
-0.187596, -0.54424, -0.260956
-0.453843, 0.392328, -0.918554
1.56998, -0.128757, -0.849495
0.00271323, -1.0552, 2.99061
0.230262, 0.721815, 0.768819
-0.858951, 0.391821, 0.408763
0.40174, -1.28479, -0.84438
0.657629, 0.185731, 0.803037
0.275643, -0.792984, 0.307338
0.807846, 0.182756, -0.313715
0.277953, 0.354106, 1.91889
0.135384, 0.67073, -0.916457
2.12044, -2.5977, -1.34938
0.200984, 0.348204, -0.291048
-1.79652, 0.842635, 0.868623
-0.641391, -0.592445, -2.24651
-1.39139, 0.837105, 0.097384
0.326447, -1.0563, -0.483339
-0.485175, -1.21932, -0.294918
-1.06539, -1.92518, 0.599407
-1.15546, -0.842181, -0.595376
0.498365, -1.10235, 1.07177
0.703311, 0.409092, 0.306019
0.225491, -0.0503191, 0.224621
-2.4433, 0.759692, -0.694844
0.250133, -1.75541, -0.64412
-0.679562, -0.277969, 0.234065
0.433666, -0.738334, 0.314011
0.295081, -1.23018, -0.187584
-1.50346, -1.73864, -0.864517
-0.901891, 1.04466, -2.69401
0.241235, -0.802954, 1.07439
-0.796856, 1.01323, -0.112873
-0.404102, -0.620335, 0.994482
-0.0177899, 0.447663, 0.248651
0.310733, -0.554904, -0.506392
-1.78221, -1.93505, 0.610826
2.10273, 3.82067, 1.32098
0.081148, 0.320638, 0.0523356
-1.0648, 0.416705, 0.181028
-0.112042, 0.527696, -0.0325855
0.23076, -0.0642075, 1.10115
-0.83047, 1.45914, -0.319564
-0.845995, 0.791607, 0.75335
0.0158247, -0.538234, -0.981031
-0.54376, 0.0661575, -0.459195
1.08399, -0.632444, -1.0508
0.11955, -0.593553, 0.115149
0.425214, -1.08369, -1.21379
-1.54847, -0.174883, 0.374434
0.22052, 0.934506, -0.359753
2.25574, 0.101902, 0.428345
-0.89194, 1.08289, -0.824038
0.0370687, 1.10618, 0.82462
0.730046, -1.57559, 0.0466371
-0.0360841, -0.290978, -0.347066
0.140978, -0.0930962, -1.12253
0.319673, -0.714625, -0.876323
-0.579312, -0.0884063, 0.225354
-1.49354, -2.40362, 1.4922
-1.48863, -2.89037, -1.64408
1.14346, -1.09127, -0.115904
0.691935, 0.664217, -2.66344
-1.33176, 0.102251, -0.924108
2.37789, 0.549487, -1.32711
1.56637, -0.35221, -0.382418
0.346257, -0.0471789, 0.325276
-0.273625, 0.0179824, -0.0236909
-0.423438, 0.541182, 0.0983843
0.195586, 0.673909, 0.90374
0.5266, -0.226117, 0.392356
-0.060545, 0.841073, 0.447353
0.4916, -0.281158, 0.874732
-0.611847, 0.315186, -0.242233
0.376638, 0.398795, 0.100125
0.439295, -0.371216, -0.509729
2.24985, 2.14257, -0.213945
0.232327, 0.882879, 2.46673
0.269742, -0.109358, 0.477295
0.54628, 0.306413, -0.489479
1.39211, 1.8558, -0.80748
-0.8687, 0.500729, -0.130449
1.11426, 0.925425, 0.378517
3.31296, -0.824339, -1.23444
-0.810399, 0.0995751, 0.380089
0.701583, -0.0112537, -0.549981
-0.611347, 0.188807, -0.405379
-0.206492, -0.163005, 0.108266
1.27445, -0.696236, 0.320629
0.859839, 0.339637, -0.537125
0.0307512, -0.478581, 0.721993
0.398788, 0.442744, 0.707448
0.0530615, 0.155045, 0.168542
-0.51489, 0.319205, -0.301917
0.743019, 0.307312, -0.10175
0.389345, 0.184699, -0.319938
1.14952, 0.889051, 1.48469
-0.214213, 0.442158, 0.598709
-0.127582, -0.670898, 0.195158
-0.387227, -0.504771, -0.407395
1.59088, -1.3688, 0.611506
-0.137864, -0.067183, 0.0492617
-0.591047, 0.497717, 0.291658
0.181872, -0.0211062, -0.9007
-0.256318, -0.320227, -0.244599
-0.306305, -0.736512, -0.243242
-0.967186, 2.22242, 1.05778
-0.678698, 0.831083, 0.0632717
-1.13159, -0.352069, -0.41415
-0.422811, 0.496734, 0.895567
0.24022, -1.71295, -0.198162
2.83107, 0.11426, -1.28884
-0.0476662, -0.18022, 0.320312
0.363012, -2.238, 0.978595
-0.761038, -0.354282, -0.459838
-0.28954, -0.0444735, 0.67259
-1.01979, -2.07598, 2.05728
-0.136645, -2.33255, -1.66874
-0.0744034, -0.52605, -0.774502
0.854155, 1.92694, 0.892101
0.0598382, -1.21445, -0.280894
-0.26815, -0.268475, -0.19268
0.694078, 0.072321, -0.528018
-0.24679, -0.219334, 0.198308
0.164298, 1.05264, -0.311282
0.43449, 0.470438, 0.0535486
-1.20261, -1.26031, 0.956839
0.849398, 0.382514, -0.273795
0.211022, -1.51126, 0.0253158
-0.926839, -0.728506, 0.441723
-1.32776, 1.29617, 0.437989
-0.439169, 1.15858, 1.82682
-0.144193, -0.296248, -0.642626
1.57145, 1.06762, 0.109605
1.16825, 1.72843, -0.246747
0.334885, -0.355299, 0.0831434
-0.0769962, -0.76198, 0.0317557
0.711061, -0.790642, 0.106292
2.02643, -0.15573, 0.324575
-0.550565, 0.689757, -0.416515
-0.0256097, -0.0398681, 0.197294
-0.687445, 0.755494, 0.668806
0.357922, 0.873331, 0.170191
-2.19507, 0.812072, 2.21525
-1.03992, 0.341759, 0.493221
-0.0747798, 0.373359, -0.120029
-0.793252, 0.640204, -0.234134
-0.426732, 0.841595, 1.09021
0.156364, -0.544654, -1.65671
0.851366, 0.800808, -0.196391
-0.696856, -0.136554, 0.16337
-0.579448, 1.00513, 1.4577
1.03624, -1.08449, -2.20925
-0.104777, -0.890232, 0.162747
-1.54376, 0.463265, -0.111617
-0.283482, 0.71247, -0.666997
0.821703, -0.0693872, 0.498609
0.82767, 0.424895, -0.873971
0.0792131, 2.19341, 1.22739
0.0114175, 0.13299, -0.409533
-0.843507, 0.467321, 0.546644
-1.59653, 0.798239, 1.16766
0.367961, -0.363546, 0.312049
-0.572911, -0.0855841, -0.136089
0.461938, 1.62836, 2.43925
-0.421676, -0.91973, -1.65255
-1.63984, 1.30006, 0.519395
-1.48216, -0.790594, 1.49163
-1.27411, 0.15944, 0.577691
-0.952497, -1.27633, 2.71249
0.452201, -0.382275, -0.2698
-0.252437, -0.267056, -1.2215
1.02447, 1.39011, -1.86609
0.69047, -1.734, 2.28237
-1.07408, 0.629575, 0.961109
1.09013, 1.76488, -1.21537
-0.551198, -0.421698, -0.00207722
-0.951725, 0.383359, -1.12984
0.792955, -0.272255, 0.535953
-0.127776, -0.128007, 1.49309
-1.08892, 0.0210907, 1.03771
1.08094, 0.318402, -1.47731
-0.474252, 0.747679, -0.114889
-0.362329, 1.55334, -0.210168
0.489501, 0.472608, 0.441434
-0.651482, -0.0156049, -1.30474
-0.729697, 0.504113, 1.11679
0.149308, -0.017748, -0.979842
-0.279725, 0.311011, 0.305207
0.516512, -1.22637, -3.81784
-0.414241, -0.0385556, -0.155763
-0.854623, -0.415357, 0.703902
1.12455, 2.21231, -1.51774
0.614835, 1.05077, -0.250644
-0.0378081, -0.505265, 0.236093
0.264539, -1.55128, -0.153707
-0.177111, -0.83285, 0.42447
-0.27442, 1.42056, 2.45096
0.0634388, 0.325647, 2.95274
-0.42089, 0.812768, 1.8946
0.613799, -0.43421, 2.38577
-0.493138, -0.557742, -0.512881
-0.278376, 2.38093, 1.08752
-0.326179, -0.330801, -0.495071
0.165916, 0.0602593, 0.0209334
0.446356, -1.14673, 0.901525
0.802712, 0.568995, -0.872531
1.5161, 0.185265, 1.06565
2.89194, 0.434739, -1.26901
-0.983576, -2.68464, 1.72497
0.337156, -0.144123, -0.234698
-1.12862, 3.0782, -0.680873
-0.62742, 1.81177, 2.71532
1.45644, 1.3132, 0.667829
-0.254959, -0.558396, 0.26538
0.0877052, -0.40014, -0.207856
1.00373, -0.48842, -0.377356
-0.620593, -0.277929, -0.721489
0.438665, 1.42254, 0.263616
-1.20102, -0.459129, 1.11977
-0.382186, -0.567628, -0.267473
-0.512767, -0.309466, 0.438146
0.153682, -0.222612, 0.0162475
1.20358, -0.818066, 0.357075
-1.46226, -1.29464, -0.778845
-1.38614, -0.700894, -0.749305
-0.467644, -0.273523, -0.7214
2.0353, 1.36997, 0.430851
-0.0910139, 1.37494, -0.448294
1.61321, 0.530719, -1.34207
0.664303, 0.569657, -1.22245
-1.43633, 0.965666, 0.632163
0.641165, 0.576675, 0.283881
-0.339504, 0.858983, -0.0262567
1.14181, 0.88989, 0.00572364
-2.74523, 3.56362, -0.692374
0.0582332, 0.101514, -1.58441
-2.73539, 1.5604, 0.070061
-0.981732, 0.587893, -0.914098
-1.30428, -0.400546, -0.796079
-1.04884, -0.175025, 0.264086
-1.3057, 3.03327, 0.680827
0.100872, 0.0997871, -0.194837
1.08593, 0.000826527, -0.694735
-0.587192, 0.457838, 0.388883
-0.65679, 3.50155, -0.0121603
-0.0680027, 1.28915, -0.52819
0.465199, -0.228486, -0.522193
1.23126, -1.06586, 0.0469333
1.00469, 1.89804, -1.19106
0.739367, -0.193033, 0.761914
-0.660221, -0.463369, -0.310255
-0.145053, -0.447116, 0.248354
-0.22056, -0.183517, -0.103628
0.0383991, 0.333578, -0.0403431
1.03022, -0.654187, -0.0209075
1.13105, -1.3033, -2.16948
-0.338505, 0.539765, -0.182862
0.159077, 0.0139627, -0.514069
-0.411756, 0.126345, 1.45374
-0.127279, 0.0480011, -0.485207
0.990671, 0.329147, 1.19846
0.487806, 0.923079, -1.32219
-0.965183, -0.277822, -2.27579
0.205513, 0.282272, 0.105465
-0.179766, 1.6756, -0.568771
-2.14588, 1.21562, 1.05834
-0.506699, 0.446507, 1.65648
-0.669028, 2.06448, -1.16661
0.253487, -0.318488, -0.250517
2.03718, -0.495783, -1.90045
0.468977, 0.495486, -0.453666
0.600127, 0.951232, -1.10294
-1.01961, 1.51659, -0.515112
0.150023, -0.206202, -0.718256
-0.0864451, 0.604806, 2.23995
1.4249, 1.27489, 0.0840783
-2.95085, -1.58746, -2.22265
-0.978289, 0.0633453, 0.58535
2.13193, 2.40479, 0.887556
-0.0232456, -0.163401, -0.509814
-2.46614, 0.253865, 2.46528
-1.3274, 0.100936, -0.522954
1.22882, -0.154053, -0.39663
1.02217, 0.940496, -0.927953
-1.05019, 1.02341, 0.117103
-0.625107, 1.36223, 0.617502
-0.562389, -0.392287, 0.386344
1.19613, -0.726457, 0.973271
-0.238834, 0.776163, 0.380273
-0.62345, -0.15113, 0.962683
0.157612, 0.827266, 0.373718
0.751998, -0.406933, -0.0741937
0.284381, -1.42589, 0.660211
-1.53674, -1.61584, 0.239924
0.81858, -0.69274, 0.265899
-2.70233, 1.80776, -0.00903211
-0.31885, -0.653288, -1.2853
0.548072, 1.14815, 1.09772
-0.743367, 0.0790494, 1.56551
1.24309, 0.277946, -0.295443
0.157637, -0.781989, -0.220496
-1.55489, 0.443144, 1.07099
-0.893612, -1.00548, 0.978104
-0.725864, 0.887511, 1.12906
0.37438, 0.150238, 0.825896
-1.10057, -0.325325, 0.0461966
-0.375822, 0.0178668, -1.18431
0.441143, -0.416845, -0.812293
0.336901, 0.514208, 0.333207
0.458344, 0.601098, 2.02174
-0.845186, 0.407304, 1.75497
1.25693, -1.14712, -0.0497281
-1.20064, 0.42015, -0.714015
0.975642, -0.408799, -0.144947
-1.29347, -0.161134, -0.294632
-0.02894, 0.271797, 0.0340969
0.225195, 0.0189431, -0.514585
-1.05475, -0.0195799, 0.527767
-0.615869, 0.289905, 1.16843
0.313667, 0.136848, -0.807611
-0.0924107, 0.919626, -0.520686
-0.0220551, -0.257453, -0.21081
0.394967, 0.238517, -0.146648
-0.682875, 0.542918, -0.267556
-1.79917, -1.30831, -0.587293
0.481422, 0.373087, -1.02452
0.326307, 0.72279, 0.333819
0.366751, -0.381339, 0.0784282
-0.50786, -0.661013, 1.30453
0.295575, -0.149473, 0.461944
0.150498, -0.130243, -0.246364
-2.27947, 0.144737, 0.711108
0.0762127, 0.647236, 0.0714508
-0.0881547, 0.0360164, -1.12745
-2.86888, -0.0770105, -0.0387556
0.237847, -0.342379, 1.82956
1.62626, -2.64403, -1.55037
-0.170763, 2.49603, -1.94627
1.18737, 0.206093, -1.30205
1.2625, 0.360086, 0.134131
0.334459, -1.54036, 1.38044
-0.443613, -0.815763, 0.400162
-0.0702617, -0.390472, 1.77803
-0.219695, -0.121936, -0.569968
-0.8033, -0.982445, -0.152872
2.63258, -0.147805, -0.0890082
-0.50799, -0.191708, 1.03067
-1.59829, -0.822825, -2.21363
-0.310608, 0.644976, 0.558615
-0.525638, 0.100822, 0.219716
0.211971, -1.84277, 1.7079
0.479664, -0.338046, 0.567321
-1.02028, -0.294172, -1.10963
-0.236838, 0.587992, 0.156449
0.366769, 1.41556, 1.94161
-1.92292, 1.9037, -1.42935
-2.17138, 0.176606, -1.95634
-0.570267, 1.56815, -0.943268
0.376622, 0.142536, 0.856604
-0.333739, 1.21255, -1.49055
-0.497437, 1.18772, -0.0216007
-0.414203, -0.153581, 0.493679
0.65218, -0.284418, -0.204996
-1.26373, 0.547152, -0.105124
0.99133, -0.463903, -0.518711
0.0456793, 0.81061, 0.0912804
0.0576734, 0.0598757, 0.000883644
0.525204, 0.221653, -0.714449
-0.19133, -1.00239, -0.387
-0.555711, 1.06181, 0.989
-0.721844, -0.18665, -0.733231
0.180553, -0.244127, 0.0442433
-0.482169, -0.0383693, -1.03824
1.63112, -1.25747, -0.413042
1.11429, 1.46903, -0.887754
-0.495433, -0.0253633, 0.170676
0.0162778, 0.177411, -0.212372
-0.246467, 0.608081, -1.55103
-1.21624, 2.3076, -0.760782
0.132441, 0.324537, 0.0077674
0.453269, -0.911612, 0.497352
-0.118046, 0.0895607, -0.599182
-1.10696, 0.806609, 0.936066
0.649049, 0.950441, 1.06572
-0.662156, 0.147217, 0.0462045
-0.513834, -0.125828, -0.924418
0.121187, -1.18276, 0.276174
0.0882501, -0.0722664, -0.429179
0.0338371, 0.308568, -0.462287
0.653715, -0.78214, -1.79468
-0.803487, -1.64176, 0.442962
-0.230257, -0.807318, -0.307989
0.543902, 1.06273, 1.02615
-2.48555, -0.0571971, 0.562366
0.431319, 0.586601, 1.2739
0.623521, -0.139138, -0.223171
-0.278559, -1.60354, -0.350114
0.500531, -0.216188, 0.557021
-0.420174, -0.556428, -0.295099
-0.7855, -0.822268, -0.783167
-0.388337, -0.460375, -0.359535
0.104546, -0.539183, -1.74526
1.41194, -0.322214, 2.66789
0.699815, 0.433948, -0.646597
-2.11721, -0.149891, -1.38887
-0.917033, 0.870506, -1.18915
0.732321, 0.06481, -0.988991
0.188913, 0.602761, 0.424359
-1.62404, -2.87202, 1.55749
-0.0412847, -0.12169, 0.00691219
0.223456, -0.268679, 0.447316
-1.48323, 0.577149, 0.979684
-0.515454, 0.476185, -0.471459
0.137134, -0.626979, -1.54641
-1.2542, -0.538396, 0.558274
-0.486247, 1.03843, 0.726932
2.08822, 0.502866, 0.467309
1.18348, 0.207074, 0.664578
-0.429158, -0.197762, -0.641463
-0.355384, -1.5233, -1.39782
-1.73292, -0.542382, -1.08809
1.01612, 0.63312, 0.341349
0.205485, 0.444704, 1.11128
0.0956713, 0.305333, -2.45442
0.0983171, -1.06067, -0.435204
0.320044, -0.220727, -0.280493
0.387748, -1.42973, -0.830038
-0.773477, 0.16841, -0.36426
-0.729842, -0.582955, -0.426164
-0.9425, 1.16222, -1.0983
-1.38428, -1.45257, 1.54124
0.55629, 0.895111, -0.0178256
3.5719, -1.35931, 3.4338
-0.350155, 0.536881, 0.789897
-0.0802273, -0.379152, 0.891217
0.819026, -1.02989, 0.136521
-0.191505, -0.967217, 0.739
-1.03535, -2.88819, 1.33108
-0.146382, 0.208129, 0.0243137
0.0332883, 0.102294, -0.200088
-0.601938, -0.441815, 0.680839
0.642776, 0.677299, -0.870456
0.392216, 0.229189, 1.82279
0.187146, -0.0744616, -0.0418906
1.5072, -0.458395, 0.593944
1.02168, -1.08177, -1.53756
0.170868, -1.04932, -1.04395
0.0131512, 0.287875, 0.178718
-0.0550163, 0.439792, 0.281557
-0.404563, 0.0897449, 0.073619
0.555748, 0.0149735, 0.0112807
0.682977, 0.635852, -0.184499
0.642262, 0.445059, -0.517195
-2.30246, -0.197722, 1.27518
0.83555, -0.211284, 0.548279
0.964766, -0.59184, 0.611026
-2.29331, -1.18866, -0.36152
-0.124389, -0.0375327, -0.367093
-0.065778, 0.495326, -1.1552
1.33293, 0.704022, 0.319129
-0.695329, 1.57191, -3.12149
0.446312, -0.529612, -1.29338
1.21175, 0.649258, 1.3192
-0.66087, 0.270413, -0.00605139
-0.395578, 0.406879, -0.240982
-0.436814, -0.692587, -1.21928
-0.191459, 0.768581, 0.0640367
-0.54996, 2.39568, -0.697756
-0.0129073, 0.114853, 1.04537
-0.620957, 1.836, 1.25152
-0.0849598, 0.537068, 1.08236
0.111173, -0.0935253, 0.643641
1.31952, 0.794234, -0.0300207
0.542503, 0.16886, -0.144898
-0.274866, 1.77976, -0.506762
1.98095, -0.362889, 1.38326
1.35544, 0.757828, -0.576479
-0.0222564, -1.86202, 0.234312
0.15463, 0.0848686, -0.807635
-0.235585, 0.870932, 1.13519
0.201928, -0.635453, -0.780894
1.16728, 0.48138, -1.32408
0.0245518, 0.543467, -0.112334
1.2699, -0.888256, 2.67216
-0.267751, -0.85972, -0.33383
-0.0113269, 0.320771, 0.0910556
-0.0460221, 0.0599198, -0.452637
0.176627, 0.00464827, -0.151348
-0.257105, 0.12043, -0.473467
1.49696, 0.654702, -1.17404
-0.620342, 0.88114, 0.279056
-1.91507, 1.69006, -0.686773
-0.254955, 0.0365737, -0.144801
-2.30005, 0.412433, -0.245297
1.51411, 0.474501, -0.923513
-0.82692, -1.17805, 1.36107
-0.378137, -0.0691894, 2.44941
-0.0923333, -0.137445, -0.26965
-1.08014, -0.507442, 0.390769
0.0965832, 0.883703, -0.4645
0.115619, -0.0841644, 0.192317
0.828347, 0.714461, -0.283334
-0.338473, -0.292288, 0.916321
-0.322419, -0.272306, 0.266743
-0.328405, 0.0823718, -0.101016
-1.73212, -1.11027, 0.267187
0.900596, 0.890715, 1.32198
-0.388722, 0.147604, 2.15561
-0.0292969, 0.581616, -0.107219
0.421624, -0.209318, -1.0639
0.432572, -0.716296, -0.276414
0.34298, -0.355979, -0.216907
0.817286, 0.720001, 0.168973
-0.625735, -0.431152, 0.0406884
-0.0381828, 0.0825197, 0.138564
0.283578, 2.21336, 0.146199
-0.0838736, -0.0424765, -0.0741806
-0.25884, 0.977437, -0.728268
0.442852, -0.116105, 0.654978
0.85245, 0.166608, -1.93774
-0.788129, 0.65176, -0.437386
0.386472, 1.01852, 0.651046
-0.243499, -0.436627, -1.32938
-0.327685, -0.164004, -0.568071
-0.779545, 0.165092, 0.333651
-0.779476, 0.18501, 1.45611
0.260181, -0.339685, 1.15753
2.15684, -0.58655, -1.54307
0.643552, 0.226672, -0.112433
-0.379958, -0.788756, -0.326566
1.13379, 0.0438087, 0.564512
0.43817, -2.79695, -0.383215
-2.19444, -0.827424, -0.226986
1.07763, -1.90912, 1.85346
-0.596187, -1.19814, 0.30176
1.58274, 1.88036, -0.730487
0.0240321, -0.416495, 0.381649
-0.409463, 0.117815, 0.607444
-0.137779, 1.52668, 0.700602
-0.150039, 0.176892, 0.07357
-1.62326, 1.1509, 1.52235
1.22566, 0.36969, -0.573949
-0.871458, 1.19024, -0.112835
0.40112, -0.656037, -1.44574
-0.627267, -0.727764, 0.528141
-1.19339, 1.78979, -1.48187
-0.629072, -0.451285, 0.671648
0.625315, -0.596821, 0.220256
-2.46578, 0.0747408, 0.7859
-0.808866, -0.893191, 0.549755
0.414864, -0.390278, -1.13959
-0.00683979, 0.110815, 0.0862073
-0.530215, -1.93792, 0.536848
0.220021, 0.366373, -1.09743
