-0.247488, -3.39247, -8.9954
-2.33793, 5.10503, -4.53329
2.86022, 5.50673, 6.56382
1.44928, -3.11703, -1.49734
-0.865689, -1.59935, 2.52253
3.71218, -2.25048, 2.6584
-0.387136, 2.33605, 4.36417
-0.967086, -0.242026, 2.81127
-1.0804, 0.850869, 1.55446
-3.13592, -0.253449, -2.69774
0.745739, -2.58724, 4.68133
0.0118755, -1.14062, 5.25726
1.84091, -0.606988, 2.36042
-4.97311, 0.435574, 4.61552
-1.59145, 0.494218, -6.59461
2.00707, 2.03964, 2.19674
-9.38095, -0.561393, -6.07628
0.327941, 2.96936, -3.21115
0.237891, 0.770232, 4.20036
2.59877, -1.0658, 3.01896
-0.811376, 1.73003, 3.8524
0.603846, 1.20192, -1.63098
-0.542438, 1.81299, -4.40216
-0.695639, 2.16806, 3.92583
3.18299, 0.161168, 0.715772
0.801918, 3.06888, -4.84497
1.91451, 2.15626, 3.51009
-2.77999, -2.39409, 4.8174
-0.357072, 0.145876, 1.23276
-1.01004, -1.25198, -7.22192
-2.41656, 2.3374, -4.11503
0.197973, -3.27746, 4.96236
1.69533, 1.16456, 4.39114
-0.346016, -3.78116, -7.5059
3.13974, -0.148364, -3.76201
1.57388, -0.591195, -3.09404
-0.315501, -4.83418, -5.45563
-2.96971, -4.52483, -4.0157
2.40228, -1.27072, -3.34173
0.233805, -2.88089, 1.81685
2.32353, -4.865, -4.18744
2.76268, -1.30918, 3.19075
0.801984, 1.45746, -4.15921
1.5206, 0.836246, 2.69841
-1.82659, 3.71188, -5.18591
0.36778, -5.13785, -6.19292
-1.81389, -0.365586, -3.02641
-0.892398, -0.909552, 9.51784
-1.58416, 1.17769, 6.73268
-2.36085, 1.14224, -1.62424
11.7475, -3.10241, 1.11272
-2.96154, -2.60644, -2.11739
0.460361, 3.90596, -4.03178
-3.50275, -0.329342, 1.56661
1.88885, -0.0634039, -1.69892
0.755753, -2.19302, 3.76661
0.304979, 0.216739, -3.5605
-0.29806, -1.62424, -2.2365
-1.34922, -0.667901, -1.21783
-0.0524716, 2.30422, -5.75982
-0.682163, 3.80693, 6.32535
0.278616, -0.901855, 0.815514
-1.23206, 1.69591, -3.55744
2.02042, 2.61269, 2.89137
4.43049, 4.14748, -1.45434
-0.205793, 0.721693, -2.88602
-5.67381, 1.17867, -5.63234
2.40431, 0.990453, -3.77829
-2.07588, 8.44185, -7.91852
3.35776, -2.4729, 1.45445
0.886735, 1.88788, -2.78025
-5.99921, 4.897, 4.16314
3.3036, 2.45876, 3.94399
-1.5166, 2.16888, 2.74807
1.50113, 0.472154, 1.60933
-2.57711, -0.0741138, 2.28925
-5.95465, -1.89259, -7.98606
2.82089, -1.08817, 2.82424
-1.99152, 2.43179, -4.33978
-2.387, -0.724746, 1.13444
1.5995, -0.139163, -2.27189
1.56295, -1.26834, 1.1128
-0.390305, -0.737738, 3.53477
-0.533764, -0.674248, 1.83224
-2.90274, 2.26623, -3.65201
0.581756, 0.293063, -2.03828
0.911172, -0.703976, 2.36177
-0.716534, -1.03489, 3.2531
-0.180787, -0.416102, 4.72289
2.42528, -1.66663, 1.84527
-4.01745, 1.32602, -2.13227
-2.3836, -2.53825, 5.61572
6.45593, 4.57023, -1.29142
0.67429, -0.330146, 2.28706
0.403105, -0.371049, 5.23033
-2.85437, 2.44734, 3.66515
-5.55196, -1.80211, 1.68128
-2.9733, 0.59762, -2.45527
0.578436, -0.000672473, -2.44277
3.08026, 2.62547, -2.25864
1.0137, -2.15946, 3.97996
3.12026, -0.192707, -1.38334
-0.0455445, 1.13172, 0.930717
-0.623321, -2.39329, 1.62948
-1.48364, -0.592235, 1.85161
0.0384816, -3.79825, 3.19312
1.77462, 0.416335, -4.167
4.0921, -2.21173, -3.20858
-0.783949, 0.12441, 1.8224
-0.304451, -3.12897, -2.955
3.72475, 3.76203, -4.86759
-1.53737, 0.18567, -4.19794
2.09871, -0.398982, -1.31275
0.587942, -0.952825, -2.50081
-0.915059, 6.66138, 5.22561
0.766687, -0.496138, -5.19576
-4.82011, 3.73751, -6.87433
-2.59703, -0.0751568, -8.91016
-0.934552, 5.10753, -3.28738
6.09941, 5.27917, -6.09472
-1.87289, 0.911077, -2.79244
-0.93533, 4.88596, -3.24225
2.75774, 2.28446, 2.21537
-0.759989, -1.77657, 3.3529
0.142228, -0.454681, 2.88751
-4.11939, -1.67742, 2.7173
3.65682, 0.0905958, 3.28087
1.33761, -5.72366, -3.62843
-3.98017, -3.41549, 3.62455
0.208912, 3.90373, -4.71891
1.69865, 1.27478, 3.1815
-3.93805, -0.946442, -5.14471
-1.23898, -1.66109, 2.39884
0.504767, -1.86293, 6.03019
-0.456782, 1.06237, 4.24205
0.434992, -2.67557, 3.01554
3.24583, -0.0843981, -2.00345
7.1854, 4.03053, 7.26398
-4.36911, 0.982973, -2.48392
-4.9958, 2.39598, 7.76539
1.81558, 0.816821, 5.5774
0.461755, 3.30116, 2.38018
0.742406, 1.73243, -1.47709
-0.264295, -0.833955, -0.952851
-0.064426, 1.35821, -3.59444
-3.75288, -0.12823, -1.44214
1.45436, -0.214982, 2.4456
-1.76359, 0.688524, -1.42034
2.44486, -6.72864, 7.79891
-4.65309, -3.79154, 4.15073
-0.478103, 0.37887, 3.44414
-1.72531, -0.995864, -2.69194
-0.183913, 3.13894, -5.19144
2.52183, -4.34275, 1.17217
2.33989, -3.20185, -3.13236
-0.0725078, 0.331389, 3.41901
0.0529306, 0.0107322, 2.20806
2.00897, -4.0706, -7.43949
1.5046, 1.85826, -2.90986
2.34827, 1.60779, -1.45734
-2.66678, -4.05254, -6.24259
1.93911, 3.67469, -0.594751
-1.72109, -0.700057, -3.9529
-10.0014, 1.08057, 5.72773
-5.54434, 1.23014, 3.78852
-0.0158308, -3.54731, 4.94064
2.67355, -2.40062, -3.11875
-3.33805, -1.34675, 3.4736
3.55925, -0.740847, 3.91381
-1.12046, 0.520169, 6.26141
1.41181, -1.51754, -3.10525
-0.105235, -0.738549, -3.40648
0.0485402, 0.236626, 2.8205
-0.503307, -2.58307, 4.87327
1.62443, 3.10091, -2.06645
-3.79641, -1.37461, 0.991174
-1.19432, -0.728294, -3.29172
-2.06525, 6.9128, -5.55023
-0.696539, 2.0963, 2.75204
1.22262, -2.18793, -4.09149
0.528292, 1.24351, -0.876741
-2.44239, -0.304752, 2.49473
-1.25597, -2.55115, -5.46494
-1.52271, 0.936665, -2.72142
2.98499, 1.4265, -4.35192
-2.44252, -2.64856, -2.35951
-4.30865, 0.909242, -3.99763
-1.98078, -0.385877, 2.88699
-0.956927, 0.973687, -3.51434
-4.25812, -2.32621, -5.429
-3.91918, -4.32753, -7.70107
3.19831, 0.565577, -2.96539
-3.22762, 1.01008, 2.02581
-0.773208, -2.6506, -2.66006
-4.66742, -0.170537, -1.13048
1.57974, -0.361019, -3.72058
-0.941457, -0.0466444, 2.6392
1.99174, -0.000250058, -7.27602
-1.80897, 2.14157, 1.93715
-0.377326, 3.01301, -1.46794
2.01962, -0.190417, 1.73553
-0.679334, 1.45612, 2.77106
-3.87099, 1.32379, 4.30354
1.42419, 1.82583, -2.19137
3.32062, 1.90205, 2.65991
1.5555, -6.00989, -4.89072
0.529453, 4.32089, -1.08768
-1.19332, -0.15237, 3.54329
-5.1873, 0.650445, -0.834659
3.73024, 0.536961, -6.05965
0.495334, -1.43094, -3.36728
4.46129, -1.05607, 4.58622
-0.346665, 6.74428, -6.98094
1.16761, 2.24328, 1.61019
1.81928, 0.0807644, 2.167
-1.37906, -0.0318159, 0.841975
-0.216654, -0.0995788, -4.3979
0.248216, -3.20881, 3.34852
0.0510914, 0.203563, 0.822905
1.31296, 1.30501, 1.4746
5.15499, 0.48477, -3.62174
0.59864, -2.14035, -1.23171
-2.10548, 3.36029, 4.37948
-1.61817, 3.54748, 3.67771
1.7031, -0.0816411, 1.74648
1.83795, 2.10717, 2.92102
1.45519, -2.49705, 1.68079
0.377595, 3.54441, 3.85414
3.35581, -2.25021, -2.61538
0.0276981, -0.183074, 3.78028
0.147192, -2.49278, -1.7709
1.45428, -2.20328, 5.04835
-0.435095, -5.19115, 4.0026
-1.08785, -0.302499, 3.59251
-5.89681, 0.553107, -2.86963
-1.2271, -2.15169, -2.39607
0.450344, 2.13953, 5.03003
1.04377, -1.29599, 0.735155
-0.159126, -8.35978, -1.29789
3.18512, -0.533449, 5.83969
2.70785, 1.83173, -3.72606
-0.928171, 0.37478, 6.38432
2.35975, 0.308312, -3.68073
1.41409, -3.88915, 4.22952
-2.41922, 0.725387, -2.24958
-1.63577, 1.79482, 2.32792
3.09755, 3.66868, -2.55321
0.996775, 0.938305, 1.12869
-2.31003, -5.0105, 3.24132
-2.46971, -0.855709, 2.97292
-3.66568, 2.16902, -1.42333
3.47747, 1.33716, 3.36984
-0.222158, -0.0771714, -1.93303
0.0235604, -2.71982, 2.89522
-1.94609, -2.54133, -1.70361
-1.62378, 0.285002, -1.88654
-1.11275, -2.26623, -2.32039
1.26759, 0.987367, -6.71669
-0.800918, -0.881172, -3.36376
0.305272, -4.06179, -2.32141
2.70384, -3.30876, -2.94028
-0.550825, 0.516419, 0.830248
-1.50249, -0.162879, 3.96758
-1.84715, 1.60495, -7.51057
1.78211, -1.44235, -2.59718
-3.07288, 0.194916, 2.2966
0.59859, 1.966, -1.73748
0.602383, -0.425753, 3.82
-4.17054, -1.43871, 5.73102
1.02077, 0.178353, -3.83903
-3.61917, 1.14795, 9.18209
-3.86421, 0.49892, 6.6614
-0.111137, -2.60538, 6.55673
0.36917, 0.810375, 3.87441
-4.27315, 0.627619, 6.24013
4.8354, 1.06005, -2.78245
-4.83392, -3.30495, -2.89442
-1.58945, -1.22469, 3.74142
6.00624, -5.50204, 9.22423
-2.07701, -0.754138, 3.89296
2.07529, -0.481252, 2.99471
1.51999, -0.978122, 4.8466
-2.43695, 2.82312, -2.41917
-1.03923, 1.25379, -4.58296
4.92694, -5.08823, -5.62244
6.18065, -3.72784, 2.66731
2.18141, 1.02752, 1.69877
-1.72591, 1.73296, 2.06151
0.227289, 0.463729, 3.14779
0.862295, -0.601066, -2.54898
1.24826, 1.93099, 2.14015
3.48044, 0.236903, -2.13128
1.12585, -2.81334, -4.64574
5.23795, -0.682228, 1.56364
2.22056, -3.55804, -2.45934
0.611116, 2.21686, 2.49147
0.886006, 1.64543, -3.31415
-1.49748, -2.73962, 4.14396
0.890259, 0.581806, -3.36847
-1.46486, -0.358535, 4.15656
2.34289, -1.13666, -1.54562
-4.41428, 2.77694, 4.62007
-2.94354, -2.78933, 5.74252
4.59416, 1.74243, -2.56097
0.425394, 0.508451, -0.394652
-0.982073, -4.41266, -5.1927
-2.2212, 0.735239, -2.20421
4.39628, 3.40254, 3.4746
0.920948, 1.72918, -4.32259
0.7735, 0.103002, 4.47855
0.497969, 0.200985, 1.5728
-1.47585, 2.48336, 2.20845
0.392877, -0.274466, -4.86078
-4.98818, 0.672028, -1.98384
2.43147, -0.157448, 3.02269
-0.145101, 3.35498, 3.49685
1.88225, -2.34363, -5.32604
-2.87734, -1.74575, -4.21246
-0.629502, 1.49548, -3.29471
-1.708, -1.49882, 4.0022
-2.67203, 0.0909318, -4.70377
-0.440908, 5.71366, 1.83098
3.10622, 5.0123, 4.79553
-0.633234, 6.62444, 3.59595
-0.762366, -0.356742, -0.683414
3.24014, 1.22246, 3.10649
1.81337, -2.97111, 3.86722
1.04386, 1.41926, -2.81638
1.34979, -0.68445, -3.93525
3.29925, -0.139418, 2.44786
-3.16544, 4.83105, -5.47527
3.5837, -4.50791, -2.4041
0.600707, 0.352475, -4.33652
-3.71285, 2.00687, -3.58575
0.964516, 2.33083, 3.18919
-0.241772, 1.98027, -2.31076
-3.27926, 0.592248, 0.986087
1.61854, -0.246562, 7.23942
0.438565, -1.30523, 3.72144
1.40889, -0.428979, 3.13049
2.34203, -1.93906, -4.97088
-1.44884, -1.01842, -2.03549
-7.71796, -1.73428, -4.5442
0.371755, 1.09972, -5.09029
1.85897, 2.26022, 2.09764
0.951096, -0.666718, 3.96866
-2.42634, -1.58806, -4.07993
0.977385, 2.20719, -2.85028
-1.05162, -0.208714, 0.817563
0.248372, -1.08495, 2.06736
-0.00632247, 0.258583, 1.02718
-0.639319, -0.451964, -1.50141
-0.765136, -0.271291, -2.25972
9.22938, 2.5193, 8.76116
2.27313, 4.98757, 4.58711
2.6963, 1.19109, 4.01412
-2.98983, -4.9632, -2.85686
-3.63955, -4.85915, 2.38679
0.73623, -0.839866, 2.2347
-1.19687, -1.67963, 4.68471
-0.879633, -1.47728, -0.735395
6.32908, -1.70313, 3.60685
0.981405, -3.32704, -3.9824
-0.558638, -6.56638, -7.07247
2.56947, 6.09338, -7.0663
2.32982, -1.93228, 0.643777
-0.545124, -3.1368, -5.88316
-2.76477, -2.41655, 3.66312
1.29939, 0.457575, -4.63699
-5.01405, -2.47335, -0.878759
-3.90513, 1.53397, 2.85828
1.79264, 0.495283, -2.12451
1.80713, 2.68257, -3.58606
-1.22098, -0.913087, -4.73723
1.15686, -0.6548, -1.10271
-0.156654, -0.609618, -1.60158
1.98986, -2.96756, 4.26218
3.26937, -1.21115, 6.60316
-1.29006, 0.80713, 4.16693
2.06016, -0.986636, -1.64813
-2.4167, 1.64375, -3.81113
-4.48007, -3.63616, -7.13679
1.84815, 0.796859, -0.913812
-1.26449, 0.549799, -3.87379
-0.956157, 3.17839, 3.06227
-2.30705, 4.38792, -7.45456
0.761135, 1.23512, -2.00063
-2.13037, -2.54391, -4.20422
-3.3175, 0.805986, 5.46817
-0.223317, 2.8646, 3.19991
-1.32056, -2.63486, -1.02863
-1.29904, 0.766725, 6.62181
-1.6244, 1.46268, 3.54055
0.838315, -1.73194, 4.1482
0.0016963, -0.239087, 6.06137
0.191757, 1.93744, 5.7616
-0.0434488, 1.24871, -2.26418
-1.71584, -1.80352, -4.2553
-3.67738, 1.75268, 3.69624
2.63728, 1.31746, 6.79621
-6.10907, 3.67936, 2.37758
0.030131, 1.44852, 2.24341
-0.779584, -1.50372, -3.24674
-1.49123, 0.164467, 3.10103
4.12217, 6.40389, -3.88236
1.94031, 4.57769, -4.63187
3.49309, -0.757713, 3.4027
-4.02968, -2.18025, -5.96268
-2.76772, -1.16668, -4.62992
-2.89204, 3.77836, -4.39147
2.23573, 1.51608, 10.3339
-1.66645, 0.81588, -2.65775
-0.480681, -3.19975, -6.84897
2.4336, 2.35045, -1.65241
-1.41434, -2.41442, -1.6456
3.08408, 2.10762, 4.65279
1.55981, 0.246806, -4.89754
-0.760558, 0.261532, -3.20556
2.18236, 0.486082, 2.05315
1.26047, -1.12351, -2.2705
-0.895535, -0.930757, -2.56201
-1.24883, -5.99316, 4.86086
-1.73552, -0.154145, -12.5273
0.662553, 0.62964, -2.35742
-0.542315, -1.01944, 0.855643
0.589591, 1.14589, 4.18633
-1.67625, 1.82793, -3.10737
2.08959, 0.245303, 2.54765
-3.02014, 0.956772, 4.245
-0.33576, -2.70554, 5.7935
-1.83449, -1.9673, -3.18306
2.33088, -1.93217, -4.3783
2.80441, -3.02806, 2.0613
1.44848, -0.00743791, 4.25599
-2.21259, 0.73989, -1.37738
-3.19157, -1.21082, 3.06619
3.20313, -0.0959282, 4.17184
-0.547815, 5.05832, -8.57197
-1.03279, 2.07594, 2.71902
1.8893, -0.294139, -2.15786
-0.0197409, 0.243708, 2.65606
1.19083, -1.18039, 3.14416
-2.10899, -0.392456, -1.40554
-2.66433, 1.34319, 4.25069
0.639279, -0.82125, 9.54018
5.88889, 2.33413, -3.67447
1.65615, -1.41439, 3.40832
-0.27267, 1.7321, 2.86141
0.900492, -0.850857, 4.34671
0.713128, 0.417304, -3.81923
1.89459, 1.54514, 3.21693
0.441869, 1.34968, 1.65076
-1.23176, -0.588898, 3.99736
3.06355, 0.237401, -2.38982
0.19062, -0.623923, -2.49574
-1.52142, -1.18019, -2.87489
-0.3554, -0.894925, -3.65334
-1.6326, 1.67962, -2.81594
-6.41623, -2.38922, 7.89282
2.10204, -1.43466, -2.45203
3.14697, 3.22294, 4.71606
1.47473, 1.39584, -7.62085
-0.12082, -0.875098, 2.41127
0.482412, 0.278648, -6.83656
-3.66497, -0.17276, -4.03778
-1.3091, -0.844565, 8.24683
1.28305, 0.078886, -5.05873
-0.512621, -3.06992, -3.33653
-1.70069, 3.52438, -2.8848
6.56877, 1.62717, -5.09664
-2.22961, -0.642873, 3.86471
-1.35765, 1.45907, 1.71893
0.526993, -3.43755, 1.44443
3.82518, 2.44813, -7.44386
-0.0705677, 0.915613, -3.68634
0.75719, -2.08606, 4.41917
-5.76574, 2.02487, -4.71442
0.278996, -0.212682, -2.08423
1.42719, 0.59265, 4.74688
0.909778, 0.753011, 2.83686
1.25694, 1.49672, 3.08802
2.33958, 1.44324, 5.03769
0.239536, -1.07605, 5.79334
-0.0989432, -3.19533, 3.00081
-1.4793, -1.86639, -1.46863
0.686214, -0.467849, -2.40658
-0.299763, 0.861517, 3.05754
1.95167, -1.67529, 4.75957
-1.46328, 1.85657, 5.77825
0.454549, -0.927696, -3.55393
-2.44189, -1.14016, -5.70929
0.685272, -0.066132, -3.37752
1.06975, -0.657154, 1.93967
-0.451972, -2.59629, -2.35337
-1.94201, -0.0576638, 2.72718
5.86426, 1.57132, -10.1298
0.902674, 2.76761, -6.52867
-0.670764, -1.04841, 3.62748
-1.20129, 2.5661, 4.00054
2.99534, 7.30438, -5.98415
-2.32978, 3.26001, -1.53923
-0.0781174, -1.06303, -4.46276
-1.14567, -2.60974, -4.83576
-2.16377, 0.727879, -1.66274
0.452036, -2.92133, 3.22332
1.09058, 0.620397, -3.37279
0.111821, 2.18883, 3.52361
-2.89017, 3.39186, 4.50189
-1.23986, 0.583311, -3.02629
4.72601, 0.737755, 7.35526
-1.12999, 0.173707, 2.12898
-0.610094, 0.0568638, 5.05055
-1.25831, -3.43036, -3.71186
-1.53658, 0.704085, -1.96395
-1.2791, 2.36127, 3.29767
-1.01654, 3.40992, 2.58063
-0.0895423, 4.0084, -3.23517
-0.765444, 1.78961, 4.27122
-4.73871, -6.29837, -4.28282
1.81847, 0.202499, -3.27223
0.611227, -1.2916, -2.27433
0.777883, -1.75904, -3.18796
6.16181, -0.679246, -8.04133
0.231615, -1.61931, -4.51248
0.0597419, -0.00977745, 4.13332
-0.0807704, 1.84956, -3.47582
-2.24363, 0.0605665, 2.8706
4.19751, 1.75019, -1.77147
3.64845, 1.31102, -5.55358
-3.0101, -0.34094, -1.53373
-3.73098, 0.730834, 2.57209
1.9772, -3.55877, 2.98135
1.93634, -4.17787, 6.25192
2.27703, 0.43558, -1.97432
0.65069, 0.113516, 2.34241
1.45932, 0.41369, 2.50234
-2.0984, -3.10468, -2.66848
3.63433, 1.19283, -6.44308
-0.996988, 0.133576, 3.04411
-1.08053, 2.92243, -5.09103
-1.41637, 1.85483, -5.41098
6.18862, -1.12682, 15.4579
2.44229, 1.24836, 7.56976
0.905781, 1.33082, 1.29758
4.13079, -1.86633, -5.58395
-4.74479, -2.844, 6.72776
-2.54628, -0.95306, 4.73765
-1.44468, -1.75134, -3.57552
-2.32737, -2.66421, 6.44661
6.5959, 3.4205, -5.42113
3.55696, 1.46942, -3.06757
-0.42253, 0.514307, 1.29316
0.404328, 1.614, -5.25781
-2.78906, 3.22662, -6.21677
0.67933, 1.99215, 0.268846
-0.421007, 1.57513, 2.58637
1.5925, -3.20085, 3.68645
2.29782, -0.747403, -3.47977
0.68031, 0.86662, 2.71786
1.66214, -1.08073, -2.81817
-0.288889, -3.96463, -2.40936
0.148059, 0.399363, -1.97499
3.19231, -4.57576, 4.07978
2.20712, 1.33714, -1.40902
0.00922464, -1.94702, -4.24187
-2.58594, -2.41199, 2.76881
0.936902, -0.761582, -1.92059
-0.00113081, 0.788165, 1.22335
-2.4428, -3.70662, -2.01053
-4.17114, 0.612921, -1.40944
0.959009, -2.43409, 2.8967
1.22797, -2.09838, 5.25881
4.22587, -5.73987, -5.65679
1.26278, 1.58821, 1.95023
0.175, 3.66677, -3.54093
-2.27542, 0.296105, 2.19892
1.43663, -1.85024, 1.20402
2.94855, 3.58399, 5.73042
1.03852, 1.23948, 3.25278
-5.47717, 0.81071, 9.68508
-2.67668, -0.453585, 5.87379
1.45235, -3.00116, 4.39852
-6.59158, -1.7404, -7.50136
0.0779887, 3.34849, 5.19745
2.00772, -3.51252, -8.73382
1.33328, -3.12473, 1.07746
0.160653, -2.53427, 5.84899
2.56823, 1.87063, 4.40291
-2.79811, -0.150566, -2.00985
3.25135, 2.10515, 3.6495
-1.37942, 2.66844, -4.23721
0.872034, -1.85055, -3.67413
-1.14278, -2.98797, 2.63723
-0.539732, 2.05049, 8.49282
2.19471, 2.41166, 3.37075
-1.96258, -3.81236, 4.00727
4.22393, 3.76879, 3.24964
-1.28278, 0.0667651, 4.02881
-1.14908, -4.38208, -1.50009
-0.406982, 1.93091, 3.27057
0.288022, 2.66437, -7.42129
-0.329803, 2.93867, 5.8458
-2.03528, 2.17624, 2.43788
-1.63141, 1.81253, -5.57803
-0.865586, 1.01479, 6.12842
4.18449, 3.98088, -0.803984
2.59575, -0.322392, 1.80305
-4.14043, -0.745863, -6.74853
1.16738, -1.68708, 7.665
0.130844, -1.22862, 3.47596
-0.0590523, 0.645901, -3.62359
-0.0111149, -1.42834, -4.57415
0.230921, 0.0628635, 1.40323
1.37139, 1.37936, -3.39985
0.543575, -0.589093, 0.753397
-1.35053, 0.681301, -3.64062
8.20035, 0.971713, 7.17428
-1.50442, -0.577133, -2.20357
0.0104513, -0.519471, 4.30385
3.396, 1.88443, -4.74929
-3.28752, 0.451636, 4.50794
-0.843984, -1.65828, 0.515584
2.2571, 0.399825, 4.27132
0.382922, 1.04279, 6.13
-2.95576, 1.02229, 3.37294
-0.844071, 1.96822, -7.24858
-3.14327, -3.4869, -4.33184
-1.71028, -4.10383, -4.30841
-1.33646, -8.29854, 6.44114
0.991605, 0.36502, -5.51715
6.08517, 2.3662, 7.4354
-0.529183, 2.92454, -2.36112
-0.963283, -3.97719, -3.33913
2.70061, 2.21748, 6.77989
0.647518, -2.66312, 0.824889
-0.151736, -1.45049, 2.74523
4.30592, 3.67937, -3.05673
-0.379563, -2.68838, -7.75504
0.0557742, 1.29903, -2.32514
-4.7491, 4.64431, 5.27657
1.78444, 0.691093, 4.48062
0.414105, 2.26245, 1.22624
-1.20177, -2.83703, -2.4849
-0.0649243, 0.833321, 4.14633
-3.75993, -0.741725, -3.82972
1.44037, 1.5559, 0.748483
1.65095, 2.36227, 4.9219
2.56721, 0.722789, -8.54571
0.837164, 0.738217, -2.38992
0.296519, 1.28637, 4.07597
0.874636, -2.3874, 2.54962
0.314172, -1.2853, -0.913852
2.63909, -1.62607, -3.71605
0.346567, 2.72238, 4.72011
1.65787, -1.06814, -3.65871
3.09045, -5.27498, 7.57175
-0.623906, 1.71196, 1.6499
-4.82661, 0.647774, 6.08416
-0.776521, 1.43484, 6.78583
-0.558624, 1.13048, 1.27585
4.29285, -4.28665, 5.235
-1.17659, -1.06955, 6.51167
3.75725, -0.205744, 2.62497
0.624316, 0.320624, -3.54373
2.11712, 0.458632, 10.4237
-1.49241, -0.889149, -3.47825
-0.78737, 1.14349, 2.81104
-2.84297, -1.54328, 3.18268
1.29031, 4.17786, 1.98898
0.491579, 1.52509, -4.9055
1.78298, -0.568212, -4.25701
1.00118, 0.569053, -1.2326
1.65216, 0.679417, 1.59207
0.336502, -4.31199, -1.79254
-1.52957, -1.62456, 2.16858
-2.86501, 1.71714, 5.11652
5.44428, 1.38287, -1.94751
2.92579, -0.70588, -2.89976
-1.18927, -1.59518, 2.77266
-1.4269, -1.77526, 2.67986
-0.585517, 1.64384, -8.52117
-1.63607, 1.15087, 3.34563
0.0662359, 1.1547, 3.15841
-1.3685, 0.562735, -0.655743
1.60989, 1.35056, 2.1865
-2.52553, 0.961239, -2.15536
1.13526, -1.68176, 4.19312
-0.641697, -1.26554, -2.80184
3.19151, 1.77178, 3.77947
0.791783, -0.232827, 2.23926
4.9756, -2.42673, -3.80176
1.9187, -2.4951, -1.39211
4.26931, 1.07683, -1.84643
-3.35842, -0.591485, -0.585863
-0.524464, 1.15715, 2.34094
3.30894, 1.30324, 3.90816
-0.183929, -0.528863, 7.90394
5.17305, 1.45372, 1.63434
0.151813, -0.614727, 3.99987
1.59903, -2.22417, 3.73045
-1.09324, -0.0788676, -5.56936
-1.30447, 1.76457, 5.03399
0.490878, 4.37555, 5.16142
-2.04513, 1.26734, -1.64472
0.0221649, 0.284447, -0.735694
1.76075, 0.291921, 4.84725
2.56652, 2.89821, -3.0877
5.5889, 1.26698, -5.62765
1.76106, 1.54835, 4.20781
0.852645, 3.54613, 6.14799
-3.94956, -1.71057, -3.67396
-4.29282, -1.68038, 2.09098
1.0196, -2.30528, 5.2895
0.174856, -0.701386, -3.8282
-3.36126, -4.4955, 3.26507
3.1154, 4.10389, -5.05911
1.13001, 0.201774, -1.63423
-0.758092, -2.81666, -7.92117
0.892182, 1.75855, 4.00107
0.012421, -0.133564, -0.932867
2.7917, -0.0414735, -1.03011
4.11525, -3.36787, -1.51131
-1.03161, -0.851662, -5.39893
-0.77666, -0.30161, -1.39085
3.50335, 1.83454, 2.01704
2.54672, -0.874515, 3.22078
-0.463639, -0.248703, -2.26114
-0.244521, -6.99481, -2.18383
0.547304, -2.44124, -3.77792
-0.734078, 0.134791, -4.54486
-2.29823, -0.777036, -7.08722
-0.552519, 2.41085, 2.98673
0.334277, 0.550261, 2.18649
0.30939, -4.8274, 3.07559
-0.224567, -0.443395, 2.42056
1.91925, 2.28059, -4.31611
0.599422, -2.04668, 2.71933
-1.64945, 4.07804, -11.6165
2.67759, -0.582991, 3.44944
5.6986, -2.28228, 7.76726
0.66902, -1.2892, -1.74226
-1.98647, -2.87955, -4.91436
-2.26593, 1.2548, -1.79525
1.44793, -1.81947, 6.06332
-1.90124, 4.48281, -3.93704
0.523327, -4.51359, 8.61961
0.205147, 5.08309, 3.584
0.27954, 0.197016, 4.47341
2.90895, 1.02023, 6.93406
2.12875, -3.56636, -1.79715
1.96728, -4.77213, 5.05139
-2.14261, -1.96479, -3.96581
0.864476, 4.51596, 2.47404
3.67031, 6.19767, 2.77545
1.11449, 2.66383, -2.71525
-2.06121, -0.132311, -1.20014
-1.12174, 2.51597, 2.36036
-2.46773, 2.17182, 4.65926
-0.946569, 1.75183, 2.14086
0.895313, -4.2055, 3.87977
1.30967, -4.35372, 1.58605
-2.16097, 1.92276, -4.70171
-5.21558, 4.42386, -3.54733
-2.91277, -0.857825, -3.59684
2.73365, -1.89815, -3.59025
-2.71267, 0.239928, 6.81381
0.874062, 0.181479, -1.21184
-1.19247, -0.692024, -2.49015
1.66949, 4.20355, 1.98647
-1.89437, 1.3398, -3.46654
4.69118, 0.428998, -5.12235
-0.356083, 0.771683, -1.36826
-4.86726, 2.26401, -7.85176
-0.527397, 4.21308, 2.7432
2.404, -3.84767, -2.02683
-0.889149, -5.29463, 1.05324
-0.214664, 1.04469, -1.37906
-2.10158, -1.98312, -3.92294
2.9929, 0.871552, 4.21398
0.575105, 1.39742, -1.58063
-1.44732, -1.6826, -7.71299
0.305666, -0.528046, 6.1375
3.13848, 1.78559, 2.08065
-0.452537, -1.02046, 2.03548
-0.742558, -0.0262812, -0.9882
2.18861, -0.102174, -2.83032
-1.8971, 0.682124, -3.30519
1.60544, -1.21547, 10.7059
-2.91592, -1.62276, -6.7749
-3.80704, -0.664885, -9.10201
-5.57653, -0.0490946, 6.64821
-5.71051, -4.8952, -13.1752
1.94713, 2.4444, -3.02707
5.36626, -0.231584, 4.00006
0.81735, 0.392364, -0.718815
-0.167246, -2.24295, -2.34005
-1.01449, -1.62843, 3.07772
1.91999, 6.65123, 3.42294
8.28493, 7.20489, 3.28336
-0.889366, 0.254542, -5.02854
0.393078, -2.13269, 5.02807
2.78476, 4.94377, -3.20289
1.21909, -1.9276, 4.69587
0.176021, 1.88298, -4.16496
6.21373, 4.32999, 5.12771
-0.294059, 0.542104, -6.16881
-1.45993, -0.274046, -2.84766
2.06844, 0.55848, 0.446878
-0.474111, 2.0628, -3.81878
3.48406, -1.61004, -3.27531
-4.95871, -4.44456, -3.82946
-6.20905, -3.11648, -3.63424
-0.659467, -0.148444, -1.29993
-1.02821, 2.88417, -3.60612
0.65602, 0.591568, -3.15486
1.42449, 1.08745, -2.472
-2.29909, 2.89304, -6.08768
-0.867648, 1.42562, -4.42177
-0.565482, 2.49911, -5.95793
-1.82957, -1.59259, 2.75695
-1.20551, 0.303306, 5.28193
-1.47607, 0.780537, 2.89632
-0.035038, 0.159419, -8.50766
3.52214, -2.33349, -6.22731
0.663497, 1.59915, 5.51491
3.68524, -1.67564, 1.1248
-3.92646, 1.93388, 3.70055
-3.37378, 0.579706, 8.13536
-0.432678, -0.725702, 2.59942
1.31532, 3.52698, -7.73293
3.17844, -2.40738, -2.35152
-0.591254, 0.807415, 3.25365
-2.04502, -2.32244, -2.76067
0.320602, 0.921538, -4.79856
1.26948, 4.85289, -2.14022
0.232765, -1.86603, 1.43202
-0.295217, -2.79947, 1.4579
0.651167, -0.265386, 2.14102
2.636, 2.11896, 1.41486
2.9059, -1.61966, 2.97781
1.62351, 2.36264, 6.91643
-1.71465, -4.60046, 2.80441
2.33958, 3.32903, 3.36061
2.6755, 0.700215, -2.37857
3.04292, 5.21006, -6.39923
-2.69788, 4.83632, 3.53264
0.648295, 2.05416, -2.11866
-1.20834, 1.31155, 2.97069
-1.53442, 1.27159, 3.75564
-0.0754609, -2.44543, 6.16665
0.661841, -0.820041, -3.2532
1.89986, 0.985642, 0.956018
2.29233, -0.0639434, -1.08067
-0.566474, -3.4624, 3.79846
-5.44515, -3.40084, -3.39835
2.86864, 0.436813, -4.2517
-0.567593, -0.758055, 2.17057
0.911185, -2.89011, -3.9651
-1.76805, -0.029908, -1.20975
-0.735448, 1.14952, -4.77346
-5.33156, 4.69635, 5.24488
4.00145, -0.657208, 11.4314
0.440002, 0.70983, -3.32067
1.31439, -0.109647, 1.06584
-0.38241, -2.05166, -2.70693
-0.522469, -1.68884, -4.63676
0.0391399, -1.05077, -5.24222
3.3491, -1.59558, 3.89793
0.166929, -3.48345, 6.6054
0.848069, -2.72956, 2.74137
-0.607956, 2.50565, 1.31965
-0.370563, -0.0879256, 1.46588
4.67943, 0.887223, 4.80091
-0.700899, -1.48523, 8.38994
-0.931151, 1.661, 5.71725
2.85249, 1.55099, 1.39462
-1.96377, 2.49764, 6.34582
-0.0205515, -5.87909, -3.03897
0.501456, -0.0145091, 4.37376
-0.243203, 2.76495, -5.44169
0.947527, 2.04757, -6.71381
0.361146, 1.83077, -6.11696
-0.363134, 0.671216, -7.23595
-0.376033, 5.71862, 2.31065
2.09186, 1.6167, -2.29946
3.77426, -0.93564, 5.26006
-0.546382, 3.96405, 2.11596
2.56984, -1.14402, -2.11253
0.827277, -1.90496, -1.48106
-2.2264, -1.57161, -1.88442
-0.788429, 1.72667, -1.83832
-1.17395, 0.440259, 1.69585
-3.01306, -0.00645518, -6.86007
-0.0453476, -2.06831, 6.34138
-2.39805, 6.39017, 7.1004
-0.492749, -1.8551, 1.53611
-0.864062, -0.186308, 7.03548
4.71057, -2.45529, -2.39808
-1.6515, 3.38336, 2.92222
5.16586, 3.29646, 4.99229
1.39445, -0.4861, 4.16047
3.97764, -0.0817286, -3.09239
-1.04066, 3.1518, -3.10489
-0.609713, -2.87572, -4.10438
2.41613, 0.110556, -4.33165
-2.15792, 0.472743, -2.83342
2.6364, -4.50425, -8.35531
3.01447, 0.154921, 3.62697
0.341156, -0.930808, 2.43903
-0.178337, -1.8652, 2.1001
3.78849, 2.72486, -6.11184
-1.12979, -1.98303, -2.88784
3.50887, -3.00684, -2.85433
-0.775727, -1.77824, 4.68935
0.875473, 0.984347, 3.96744
2.90541, 0.512463, -8.93781
-2.5327, 2.0988, 3.95483
-4.5357, -0.380306, 3.56142
-3.72366, -4.25742, 4.51139
-0.52227, -3.08637, 9.17832
-4.17656, -2.28157, -1.76963
-0.756981, -0.949839, 3.45942
-6.54755, -3.03775, -4.08244
0.173124, 1.25896, -2.62674
-0.951008, -2.29872, 1.78219
-0.178332, 0.0259235, -2.59362
4.84236, 0.942829, -10.0609
-0.97993, 1.16312, -3.88459
1.49626, 1.44395, -3.26446
4.72162, 1.38692, -6.36855
0.0510152, -0.51976, -1.16187
0.787441, 1.40189, -7.67836
3.24931, 0.28823, 4.031
1.92643, 0.881221, 4.24139
-0.477418, -1.23684, -1.9867
0.163752, 0.234906, -4.77604
-1.40714, -0.710882, 3.9909
1.58721, -0.949157, 1.06101
-0.178391, 4.62624, -10.6333
-0.102645, -3.64981, -2.58513
-0.745938, 0.311141, 3.22587
4.41799, 2.22471, 5.46057
0.573516, 1.82529, -0.938504
2.59811, -4.10199, -2.85135
-3.39375, -2.62789, 4.6225
2.09976, 2.1008, 2.35527
-4.78506, -2.34735, -3.70235
-1.01431, 0.189955, -8.08249
0.13051, -4.20575, -4.04249
-1.02761, 1.38934, 4.82875
-3.05716, -1.5521, -4.6449
0.939313, -1.3831, -5.18556
1.04755, 0.829833, -4.99454
2.89463, -4.07777, -4.56899
2.44875, 0.136056, 2.86282
0.613969, 0.764928, 1.21468
2.03327, 1.71661, 1.73472
-0.47547, -0.0471373, 3.72953
-0.59273, 0.651945, -2.99648
2.53149, 2.39912, -3.57171
-1.07685, 5.09248, -2.12712
0.298577, -0.293728, -1.58389
-2.84906, 1.12845, -1.47053
3.86495, 0.723136, 2.00541
2.81813, 0.237245, 2.73718
-2.48904, -2.09356, 4.17824
4.23257, 0.119317, 3.11294
0.890368, -1.35295, 1.17954
1.39557, -1.75046, 2.29901
-0.355262, -2.86029, 3.94041
6.03002, -0.0278845, 6.45358
1.8386, -1.80481, 8.04838
0.0718718, -1.10579, -1.32307
0.810722, -0.211096, 0.69355
-0.811397, 3.59633, 3.76218
-1.10034, -1.2476, 1.86158
2.47345, -1.17573, 4.3592
-1.58438, 1.18577, -3.35183
-1.27134, 2.42016, -5.74924
-2.39421, 2.66245, 4.8625
0.0546391, -1.3325, -1.16969
0.639072, 0.301353, 4.42378
0.16401, -0.742174, 5.59854
-1.85584, 4.39796, -5.4874
0.189841, -2.73448, 4.78544
-5.5984, -1.64044, 8.73302
-0.717849, -0.546314, 3.36127
-2.841, -1.28257, -6.52527
5.01446, 0.843586, -0.679437
4.53514, -3.63597, 8.30206
2.62975, 5.69137, -0.377714
2.08359, 0.043508, -4.44335
2.61936, -0.365734, -1.65386
-1.26722, -0.520444, -1.48279
3.46852, -2.92708, 0.748105
-1.45516, 2.15307, -1.27134
-2.20325, 0.345052, -2.55796
2.24502, 2.50324, -2.20976
-0.937332, -1.53429, 2.82894
0.293581, -1.07184, 2.53667
-1.17023, -3.01555, 5.07742
0.401055, 0.729219, 3.52603
1.87201, 0.145265, 1.07868
1.41396, -0.105033, -3.39465
-2.86778, -1.13655, -1.0453
-0.440344, 0.581687, -5.29029
1.53658, 0.805763, 2.07047
1.97645, 1.30202, 1.15587
-1.52865, 0.42417, -3.96912
-0.513922, 1.08388, -1.88526
0.257544, 0.723495, -1.16948
-4.30451, -2.88053, 2.95563
-2.04561, 2.04913, -2.64855
-1.17191, -1.88039, -5.00452
-2.00843, 3.03222, 7.44082
0.666175, 0.230426, 5.1208
-2.99236, -2.30775, -3.90241
2.35714, 0.3581, 3.05884
0.146834, -2.03791, 6.06279
2.21659, -1.38064, 5.11692
5.7771, -1.20335, 1.82546
-0.440736, 1.20561, -3.2225
0.114703, -1.69996, -0.89243
1.08339, -1.93648, 3.88408
0.778207, -1.36873, -2.88641
-1.00491, -0.0174127, 1.96492
-0.246682, 0.349586, 1.32254
1.17381, 1.0583, 5.019
-1.88675, -1.0559, -3.5575
-0.587216, 0.116401, -1.81959
3.59078, -1.19317, -3.82789
2.33715, 1.5548, -4.33529
0.168502, 0.161714, -4.95545
-2.48858, -1.44239, 3.95679
-0.942457, 0.00486792, -1.06983
-1.97976, -3.14865, -0.65885
-1.9082, 0.136104, -4.72488
-1.06835, 0.540003, 8.42748
0.587932, -3.01501, 4.42476
3.34854, -5.21855, -1.37061
3.00568, -0.619406, -3.36113
3.14405, 0.344103, -7.81531
1.14337, 1.7006, 1.39981
-2.58299, 1.1302, -3.59877
0.197292, -0.0515644, -3.49691
4.48561, 2.22297, -5.36524
-2.3604, 1.9802, 7.81311
0.404854, -1.65747, 3.86213
2.50293, 1.43393, 1.34688
-1.77459, 0.72536, -1.58307
0.852711, 3.89443, -4.6592
-3.70688, -2.23081, -6.87566
0.913278, -0.0265885, 3.80943
-3.41713, 2.34994, -1.5142
-2.32618, -0.798954, -3.61538
-0.346264, -0.103384, -2.84267
-4.03031, -2.25144, -1.18811
-4.34774, 0.898237, 3.44756
-0.115882, 0.67175, -4.45582
3.26658, 3.11504, -2.28347
-4.50876, 2.35606, 5.15345
3.3825, -1.17413, -12.3862
-1.8685, -1.67871, -3.42639
0.399774, -1.33468, 3.20945
-0.663303, -4.76235, -4.10806
-0.172324, 0.460908, -3.64877
-1.26466, -0.940257, 4.05181
0.22189, 2.68278, -1.68533
-1.08021, 0.107477, 1.71031
-2.73465, -0.139077, 2.31038
1.15725, 1.06429, 3.23643
-0.0539573, 2.03137, -4.76828
1.82773, 5.29942, 5.75877
-1.85328, -0.154529, 1.84498
0.692574, 7.79194, 3.04451
0.948751, 3.71791, -3.59759
-0.0437638, 0.582017, 3.09992
1.24517, -1.24219, 2.7457
-0.589942, 0.421171, -2.59981
-1.08441, -0.117083, 2.43607
-2.09717, 0.640119, -1.84021
-2.87492, -5.3419, -4.48252
-0.844986, 1.0262, 1.66643
-0.736881, 2.46934, 1.98278
-1.73991, -6.17906, -6.90365
-8.53487, -1.76717, 3.49771
-1.87525, 1.73082, 1.72476
6.11665, -1.12854, 4.64081
0.582494, 0.0428925, -4.99285
-0.0367021, 0.583688, -1.47023
0.892432, -1.59295, -3.57056
-2.09609, -1.24585, -2.13863
0.135064, -0.580768, 2.63108
-2.16034, -2.86623, 2.87832
-2.22034, -0.834191, 2.87599
0.435693, -0.474156, 2.72458
0.319556, 0.15897, 4.75798
-1.37557, -1.24348, 3.20694
2.31364, -1.78014, 5.31887
0.151385, -0.584675, -1.61883
0.268839, 1.17853, 3.20934
-2.63499, -1.98541, -8.48106
2.26578, -1.42072, -3.74914
6.76169, -2.32381, -6.50122
1.63903, -0.265703, -4.57564
-0.999501, 3.00731, -2.97864
0.014312, -3.69642, -4.28111
-1.48616, -3.15461, 4.41774
-2.52691, -1.73357, 3.61126
-1.11611, -1.06382, -2.05585
-0.777061, -0.684997, 3.47554
-5.548, -0.994194, 3.62695
-3.49028, -1.28918, 4.38535
-2.27519, -0.609284, -3.79808
2.00925, -3.15196, 1.49329
-5.17887, -2.77634, -4.28464
-2.18457, -1.05617, -1.80673
-2.15679, -0.130993, -3.20552
0.226523, -1.79853, 4.24734
-4.5395, -2.27705, -4.5366
0.360746, 0.980552, 6.38416
-1.81025, -0.716357, 3.21205
2.67393, 1.25334, 2.51041
-3.48144, 2.78185, -5.8858
-2.48432, -0.9948, -2.10692
0.0936104, -3.15278, 3.18512
-2.58264, 0.166353, 1.2883
2.18411, -1.90335, -2.05199
0.348558, 0.200801, 3.84874
2.63873, -0.0647255, 3.41547
-0.30012, -1.76078, 3.64562
-3.21988, -0.554817, 3.53046
4.0381, 1.91172, -2.20157
0.751863, -0.109496, 1.36912
5.72125, 1.37874, 5.27109
4.82905, 0.214499, 5.32188
-1.15215, 1.10672, -3.24427
-0.219304, 3.27273, 7.529
4.40492, -1.72018, 4.03173
0.195495, -2.3399, -2.45014
-0.940453, -1.19386, 2.28148
0.0818374, -0.615094, -4.1581
1.72634, 4.34876, -2.39841
0.511348, 2.03023, 1.37207
0.622266, -1.62238, 3.59612
-1.02553, -0.600204, 1.4671
-2.41058, 0.475567, 0.885317
4.65862, 1.21469, -0.741878
-0.057231, 0.626686, -2.12879
1.23601, 1.09275, -2.35058
-3.52736, -0.649349, -3.73498
-2.03989, -4.42323, -3.80407
2.21597, 0.517223, 2.23895
-1.27354, 0.816324, 3.38435
-2.11856, -3.0441, 5.43728
0.702061, -1.14816, -0.98359
1.47202, -3.99997, 3.44329
-1.23443, -5.77614, 2.66338
-0.586181, -0.861564, -2.22847
-3.45669, 0.352668, 5.9177
-0.127113, 1.32146, 1.09233
0.906472, 0.383978, 1.17297
2.2764, -1.57287, -1.23764
0.744128, 1.85828, -4.32643
0.014841, 0.0269107, 3.3831
-2.34114, -2.83233, 5.41596
3.78242, 0.819335, 2.32986
0.507368, 2.60339, 4.53389
1.20699, 3.01975, 6.41103
1.88997, 2.06037, 4.00917
-0.177814, -0.163093, 5.89294
-1.34836, -2.17151, -1.96936
-0.694199, -4.13262, 1.71374
0.640329, 2.32414, -7.39186
2.73008, 0.201551, 4.05142
-4.94804, -1.7518, 1.92165
1.68293, 0.61694, -8.31803
-0.220332, -0.194698, 6.67303
2.23126, 3.20801, -6.8185
5.42174, -0.258563, -3.80993
3.81772, 3.11923, 2.38697
-0.660272, 0.530786, 3.64442
-0.151435, 1.6647, -4.19561
-1.08848, -2.96739, 4.78507
-0.696877, -2.77802, -7.2955
0.054544, 0.848267, 2.86283
0.683627, 4.80671, -5.43425
1.57395, 2.61218, 5.01764
0.95548, -0.457537, -3.38162
-1.18772, -1.23609, -3.66167
1.64889, 0.707264, -1.84998
0.899409, 0.37765, 2.8975
1.0172, -0.95588, -5.52783
0.377449, -2.00442, 3.41148
0.229075, 5.28296, 4.84818
-3.13016, -2.67896, 2.25697
-2.93429, 2.49633, -6.13881
2.2279, -2.55942, -3.02797
0.266867, 0.622402, -4.91284
0.371527, -1.79009, -3.93386
0.148598, 0.338962, -0.806024
2.35309, 2.73865, -5.27597
0.126773, -0.291219, -2.10798
0.844968, 2.4951, 1.35379
3.75676, -7.22996, -5.98527
-0.847321, 3.69174, 2.77895
-0.265777, 1.2832, 3.70171
-0.00588758, 1.76939, 1.29146
-0.560001, 2.18593, -4.32551
0.885961, 2.68165, -6.86004
-0.775052, 4.18349, -7.07688
-3.57727, 1.26178, -3.38367
-0.756591, -2.13992, -4.78976
-3.04929, -0.472793, -3.76115
-2.71598, -2.38164, 6.21546
-1.44419, 3.16555, 1.91288
-3.15132, -2.2788, -1.8829
-1.38224, -1.38368, -2.14393
-1.73394, 0.0750319, -4.5942
-0.0012455, 0.183485, 3.34978
1.79699, -0.078195, 7.65788
-4.7856, 2.06331, 4.66236
-3.71854, 1.14839, -2.68375
-0.175739, -2.34205, 2.30921
3.75896, 2.87259, -2.90964
0.93783, 2.50961, -4.39099
-2.21294, 2.35079, -3.37599
0.0787375, 0.766884, -1.19683
4.46719, 0.491289, -1.17904
-0.0428806, 0.472063, -2.46334
-0.730156, 1.39409, -2.37969
0.625171, -0.802972, 7.78853
-2.01037, -0.523283, 1.21981
-2.37824, -2.3298, -4.36204
5.8127, 1.1157, 2.09547
0.546616, 0.574423, 2.49014
0.386385, -0.80495, -1.76916
-3.62082, -4.10442, 2.56997
-3.01407, -0.14385, 1.57489
-1.8493, -2.98173, -3.05587
-3.36955, -0.95681, 9.01823
4.2284, -0.323033, -7.44636
2.03791, 2.73199, 5.47465
1.55461, 3.77532, 3.60087
0.478445, 0.680239, -1.33597
3.04439, 0.0837742, 5.43369
4.0605, -0.0637148, 5.28544
-1.54224, 2.00554, -2.17554
1.85531, 1.785, -4.48573
1.47056, 0.553022, 1.12789
-0.717303, -2.27003, 2.46853
1.89246, 0.725043, 2.78976
3.87118, -3.8752, 2.58804
2.16227, -0.152017, -3.63481
1.61806, 0.753118, 3.40938
2.2173, 2.28111, -4.12511
0.992104, 4.12402, -2.80464
5.30861, -4.5006, 4.23552
-6.57671, 1.92855, -2.06615
-1.63014, -1.35448, -1.17768
-6.17919, -0.977058, 8.08924
-1.7448, 0.456545, -3.67854
-1.76549, -2.43265, -1.86192
0.299298, 1.75277, -5.03991
1.41309, -0.465307, -1.47364
-2.99584, -1.63055, -6.23753
1.81338, 3.20153, 2.99006
1.53269, 1.07432, -1.89114
-4.11734, 4.61825, -3.89684
0.631423, -1.77316, -1.24188
2.06986, 0.960759, -4.03825
1.91446, -1.28426, 2.43308
0.148261, -2.17566, -0.450033
-3.67313, 0.276211, -2.59514
0.194699, -0.136174, -0.692837
-2.62796, 2.28528, -3.01297
2.57957, 2.48368, 4.89093
-1.14536, -0.290114, 1.8705
-1.22128, -1.33689, 3.02697
4.08186, 0.410287, -0.308081
-1.35267, 1.11907, -2.3674
1.70954, 2.68079, -2.13184
1.1034, 3.09559, -2.80809
-2.19337, 1.01624, 2.78758
3.90677, -0.677343, -4.86475
-2.59488, -0.688593, -3.8611
-0.720609, 3.66198, -6.48523
0.875549, -1.88313, -5.09985
-1.40807, -1.86193, -3.88837
0.626009, 0.387681, -1.2704
-2.31702, -0.833893, -4.19089
2.29786, 0.543218, 4.7905
-2.71028, 1.2046, 2.58133
0.686637, 2.16864, -4.08411
0.169854, 1.18838, -1.27144
0.760189, 1.33668, -1.65159
-3.83951, -0.74782, -10.371
-2.4923, 0.543593, -3.28923
-8.92804, 6.82743, -6.35466
-4.04546, 2.6437, -8.37409
-0.657334, 0.388621, -1.74142
0.358643, 1.14426, 3.46068
-0.896029, 0.941751, -4.26387
0.091431, -3.52719, 3.65885
0.0136398, -0.0960435, 3.2359
1.22639, -0.512911, 3.25062
-2.26852, -3.9603, 3.36156
1.03022, 0.0541843, -9.53582
-3.48262, 0.187746, 4.26233
-4.2017, -3.2065, 1.22741
0.115975, -0.768006, 3.06348
-6.02372, -0.878725, -3.2201
1.15322, -1.55269, -2.95266
-1.30818, -2.43244, 5.40187
0.995857, -0.653904, 1.9416
-3.85025, 1.27649, 5.47221
0.966319, 2.54543, -2.78934
3.22448, 1.82593, 7.03882
-1.26667, -1.20659, 2.88846
3.60457, -0.689603, 7.60511
-3.93662, -2.6125, -9.96968
1.63787, -2.27351, -2.68519
0.190431, -4.69862, 3.21075
5.00051, -4.01844, 2.37257
-0.394501, 1.16628, 6.38661
0.0547929, -0.244685, 4.82802
3.52868, -4.2879, 3.82621
0.180825, 0.886587, 4.51276
0.306695, 5.12408, 2.90334
-0.795911, 2.3913, -2.39835
-2.75912, 2.86541, 1.72614
-0.740919, 1.28806, -3.03155
-1.94162, 1.29673, 7.19698
0.67239, -0.629831, -7.05357
-3.13553, -1.49747, 1.25252
0.072643, -5.73555, 5.78851
2.82215, -2.35051, 3.09735
-3.27935, 2.81852, 4.56211
-3.37856, 1.32313, 1.9343
-0.224285, 0.0952743, -1.10904
1.04909, 0.875086, -7.35685
1.54968, -0.501949, 4.53345
1.90618, -2.29563, 5.03834
-0.288064, 0.350567, 1.73991
-0.589706, 0.469326, -2.53302
-4.07825, -0.573706, -6.08165
-2.52398, 0.767539, 2.18711
-1.20344, -1.84275, 3.37792
-1.84169, 0.926597, 4.98028
-0.148362, 2.65668, -3.18964
0.0286801, -1.80196, 1.93059
0.0624552, 1.81817, 2.35225
1.01458, 1.40292, 3.83485
4.02296, -2.5553, 3.94789
0.791868, 1.305, 5.78913
0.340187, 3.30549, -1.65523
-0.0339295, -2.48028, -3.4725
0.394252, 2.08375, -3.41957
0.551279, 0.145998, -2.71936
-1.16025, -0.709297, 2.46331
-0.724002, 4.87546, -4.28408
-3.56874, 1.17468, 4.09925
3.83551, -4.22816, -2.88081
1.70238, 1.7973, 4.24203
0.198697, -0.681953, -2.41422
1.20776, -0.6277, 7.54621
3.71798, 4.94091, -5.71839
0.951812, -0.556632, 3.80338
0.714519, -1.48821, -3.95918
-3.66377, -1.95763, 3.49696
-0.595923, -1.17995, 3.50072
0.47635, 6.79862, -6.00827
2.32982, -0.569423, 5.51496
1.32676, 3.92713, 1.55898
-0.924863, 0.937391, -4.60419
-1.50527, -0.249584, -4.31047
-1.44537, -3.3892, -4.31527
-1.33367, 0.764365, 1.59417
-0.371602, -2.08929, -1.80623
-1.45601, 5.82933, 4.78088
-1.96138, 0.855185, -2.78694
-1.49555, 2.41881, -3.60456
3.76264, 0.0227096, 3.44428
-4.27488, -3.35128, -3.81708
1.08377, 0.761053, -2.12469
-2.01578, -1.34196, 4.59959
0.91641, 2.97696, -4.21397
1.06676, -0.521298, 2.49082
-1.95383, 4.2298, -1.53042
-4.77455, 1.81259, 4.41187
-1.13148, 0.647631, 2.27178
-2.89019, -1.7768, 3.03725
-3.53857, -2.14685, 0.724624
0.571894, -1.5189, 1.85426
4.53232, -2.20611, -3.9369
-3.26821, -0.242785, 3.23834
1.78671, 1.09458, 1.06484
2.56166, 5.06964, 5.6167
-0.93942, 5.40114, 6.15599
-0.137759, -2.19633, -6.37335
3.13975, -2.53466, 3.44925
1.22959, -0.198464, -10.7937
0.249743, -1.04716, 5.99033
0.993847, 0.0887877, 3.50497
-1.16235, 2.45082, -3.09846
-2.18364, -0.187026, -7.10906
-0.640091, -0.66081, 2.93733
-1.71306, 5.1464, -1.8811
-2.42787, 0.113901, 8.30689
3.04915, 2.99823, -2.47105
0.423026, -2.94187, -2.8061
-1.9747, -4.69258, -4.86017
0.437903, 0.333217, 3.9915
0.533945, 0.191831, 6.77414
-3.49034, -4.83938, 4.25685
-0.362841, 2.25723, 3.38124
0.607846, -0.433129, -7.45625
-5.1816, -3.14381, -2.38603
0.860815, 1.38628, -3.1963
0.888483, -1.00064, 3.36132
4.68769, -3.80132, 4.07666
1.01888, 1.2139, -1.51027
3.34853, 3.83247, 3.29577
0.781569, -2.59393, 2.25451
0.738517, 1.406, -2.12251
2.76171, 5.64637, 4.11573
0.566593, 4.87569, 5.59109
0.943343, -0.221625, 5.89099
-0.136653, 3.64582, -5.70062
1.17908, 1.3889, -3.60268
-0.445193, 1.25369, 4.52757
3.1391, -1.99808, -3.68229
-0.199665, 0.583846, -3.42626
0.105611, 0.573322, -3.78481
3.1042, 3.16541, 2.20988
0.120772, 2.45705, -10.309
-0.163486, -3.43588, 4.36615
-3.55876, -6.50779, 3.00351
-0.214005, 1.4423, -1.18453
-0.90493, 2.22007, -2.55492
-4.09659, -3.84189, 4.90033
0.399929, -4.09701, -4.0672
-0.348003, 1.28662, 3.54583
-2.24445, 2.46829, -0.80158
-0.169998, -2.56037, 1.18681
-2.55611, -3.52752, -3.18408
-0.94352, -0.488889, 0.891084
5.43967, 0.143633, 8.04789
0.0609525, -0.475439, 1.0726
2.69125, 2.36429, 6.03461
-2.67646, -2.99175, 2.72416
-0.590584, -4.06156, 4.58558
-0.226719, -1.47643, 0.947709
2.46035, 0.924619, -2.69543
-5.43889, 1.58048, -2.80506
1.90485, 4.81753, 5.90268
-3.02259, -1.23161, -3.87473
0.38216, 1.49159, 0.724539
0.100111, 1.49336, 1.5961
4.58592, -0.574212, 5.98126
-2.32361, 5.97543, -3.3834
-1.96895, -2.56351, 5.51617
1.55438, 0.620046, -3.19456
5.54772, 1.95005, 4.48025
2.96007, -1.23992, 2.77051
0.186619, -1.32329, -5.05776
-1.03149, -1.34122, -2.50241
1.58852, 3.80591, -4.21438
-1.38147, -0.978859, -5.25018
-0.946854, -2.48157, 2.3894
3.83096, -0.720046, -3.63491
-1.85657, -3.33965, 3.1343
-4.69865, 2.31888, 7.93378
-2.10451, -0.217258, -2.38635
-2.51347, 4.09583, 3.77602
-2.6665, -0.962107, -6.06824
1.14245, -0.266175, -3.86601
-1.4292, 0.25113, -7.41951
-2.54908, -4.53691, 4.11582
0.627859, 0.83445, -1.32067
1.19182, 3.03155, 4.67192
1.32762, -1.82988, -2.02228
-2.23392, 4.38177, 2.74516
-1.85836, 1.12274, -1.97957
0.955558, -2.77861, 4.37969
2.18419, 2.13809, 4.0147
0.958389, 3.68874, 6.42155
1.54055, -4.32688, 4.88348
3.17453, -3.37715, 2.53413
0.0021132, -0.575668, -2.32641
-1.24601, 4.82168, -7.89605
0.44751, 0.243107, 3.34094
0.940251, 1.6479, 2.15068
-1.94084, 0.293176, -3.98779
0.294217, 1.06182, -3.44737
-4.30921, -4.61355, 6.3977
0.789165, -2.04001, 2.69224
0.874692, 0.413507, -1.69767
-3.46309, 0.140589, -2.95531
-0.529804, -0.924934, 4.00593
-0.410923, -2.34246, -3.48853
1.07832, 2.2506, -6.88125
2.14188, 1.45592, 7.00562
1.594, -6.40798, 1.81864
-1.53283, -1.58415, -3.29624
4.00099, -0.483908, 4.12855
1.45776, -0.972159, 3.30243
-2.38042, 1.11675, 3.92217
-0.232128, 1.33781, -6.23736
-2.22654, -1.27267, -2.6805
-1.16834, -1.36639, -3.70622
-0.321479, 0.459333, 4.20465
-1.01568, -0.116607, 3.02736
-5.02789, 6.25179, 4.22012
-4.78089, 0.103919, 5.34242
0.929007, -0.625573, -2.45215
-1.19105, 2.49452, -5.34419
0.696514, -0.944413, -1.50443
-0.227021, -0.221671, -2.43974
-1.49237, -1.62566, 2.70058
-0.0211417, -0.925996, 5.84581
1.9263, -2.05758, -4.01405
-3.2203, 0.253926, -3.21822
-4.02459, -5.40244, -9.1598
0.908254, -0.39249, -3.28592
-0.704176, -2.82395, -3.55785
3.15307, -3.43226, -4.71905
7.66899, -5.90063, 6.15009
1.8455, -1.11468, 4.40667
1.38978, -1.36161, 2.21065
1.52625, -1.52956, -3.00368
-1.22307, -2.37035, 1.61488
-1.78979, -2.04368, -2.08503
-2.75728, 3.60502, -5.50944
2.06966, -5.06637, 5.14852
2.77964, -0.558212, 5.39373
-0.210278, 0.7804, -1.2137
-2.2948, 0.256416, 1.93634
-1.8873, 2.85707, 4.38338
-0.274288, 0.241969, 3.72721
-0.663265, -1.75366, -1.76697
1.87349, 0.865977, -7.05467
-1.14223, 1.1348, 2.83193
3.1153, -0.26747, -0.132456
-5.35551, 0.348805, -4.3907
0.586002, -1.63259, 3.16311
-2.67354, 1.83438, -4.23721
4.10405, -1.70295, 1.74569
1.35503, 1.72936, -5.62704
0.454686, 0.121371, -1.1586
1.37461, -1.98525, 5.12798
-1.01996, -2.9168, -2.22011
-5.0933, -1.30083, -2.54718
4.30306, -0.181845, -6.75206
2.08853, 0.105632, 3.47243
-1.33375, 0.118471, -1.6894
-1.37639, 0.701915, -2.30967
1.90207, -0.679275, 2.68105
-2.01564, -2.61155, -3.82209
1.79778, 0.5703, 2.99407
1.6095, -4.58754, 3.10565
-0.628014, 1.58807, -0.969823
-3.46789, 2.22882, -4.89844
1.23865, 2.56452, -5.05822
-0.733509, 0.0946783, 4.1656
4.30756, -0.833729, 4.40824
4.69014, -5.31938, -4.77559
4.95308, 0.325272, 8.30975
-1.94171, -0.913988, 3.7866
-1.86526, -3.91797, 6.06749
-2.31333, 2.09236, -3.2603
2.31358, -2.17972, -4.47642
1.496, 1.51265, -1.03838
-0.90355, 1.80757, 1.33306
-2.56621, -1.34543, 4.72915
-2.32571, -1.56316, -6.83801
0.679102, -0.192952, 1.03883
-0.988391, -1.82832, -6.77521
-0.384421, -0.0905602, 2.94504
3.10248, 2.14673, -2.49971
-0.51212, 0.136872, -4.4957
-3.49018, 0.591107, -4.81935
-1.73259, 3.19374, -2.83373
-2.61879, 4.61916, 3.12774
4.56543, 0.189064, 1.80719
-4.28111, -0.382905, -7.51109
-1.52943, -3.13883, -4.15442
2.09071, 5.06105, -8.06387
-1.48688, 1.96592, 4.60823
0.19045, -0.843273, -1.95015
-1.72072, -0.979604, 8.02065
1.86379, 1.11246, -3.65478
0.301762, -3.47453, -6.47463
2.28006, -6.2223, 4.52763
-1.50313, 4.02778, -5.82542
-0.830476, 0.21879, -1.97264
2.72668, -0.689732, -5.15789
0.0980511, 1.30799, -1.39107
-7.07389, 2.88306, -6.73142
-2.16894, -2.79455, -2.45155
-0.0410433, 2.88897, 1.4093
-0.317018, -3.40916, 6.80859
-2.33066, 0.330554, 9.85972
2.69139, 1.59342, 2.67497
-0.378707, 3.15604, 1.32982
1.39397, -1.28806, -4.89183
2.10711, -8.59017, -7.18174
-3.58304, -1.3473, 1.42507
-5.42358, -2.21505, -5.14062
-0.562778, -1.87865, -1.77284
-0.798917, 6.16903, 2.69393
-1.87494, -0.697291, 4.17888
-0.522407, 1.65251, 1.70989
2.84168, -1.51525, 1.39138
4.9526, 0.275564, 7.88597
0.0524096, -7.83924, 4.58272
-2.15248, -0.907469, -3.18493
-2.25814, 0.0329692, -5.43451
-1.76226, -0.392643, -7.7235
4.93191, 3.17017, -3.22693
0.014924, 1.90146, -3.85758
2.3221, 1.66053, -5.54452
0.301054, 0.482778, 4.84169
-0.709675, 1.30037, -2.96831
2.41859, 0.0139404, -2.57414
2.03483, -2.54014, -4.04912
-4.87927, -2.43188, 2.65292
-2.42525, -0.305086, 1.24141
-1.10873, -1.08897, -2.37428
0.719503, 0.788957, 1.83
0.460342, 1.80059, 1.54817
2.3489, -1.31268, -3.96225
-2.00451, 0.124432, 3.31862
-2.65048, -0.353301, 1.25831
0.969951, 0.941218, -5.90037
-2.49311, 0.5053, -4.56293
1.47934, -2.58007, 6.75583
-0.243076, 1.53883, 6.67423
0.00185877, 0.20245, -2.18382
-2.58525, -1.27759, -1.42299
1.90724, 1.22192, 3.07496
-4.71165, 1.04368, 4.19333
-2.73837, -1.59044, 5.44117
0.249804, 0.0368918, 2.07066
1.03084, 0.643555, -5.2422
-3.56058, -1.89566, -2.96988
4.25734, -0.244164, 3.43524
0.75939, -1.55457, -4.54137
0.529825, -0.676233, 0.988134
1.20953, -1.05916, 4.3934
-1.55066, -0.573255, 3.80491
1.13675, -1.0739, 6.55537
-0.99821, -2.5241, 4.63916
1.46329, -3.06055, -8.93351
2.7553, -4.00523, 5.23152
1.8994, -3.13646, -5.37396
-0.554073, 2.37232, -6.74957
-3.18303, -0.69845, -6.38476
-1.30797, 3.05469, -7.94153
-2.1524, 4.57152, 1.79278
0.82841, -1.95494, -4.95734
-1.56116, -3.08111, -4.12617
0.93828, 0.366898, -3.17206
1.48687, -0.616383, -3.02049
1.23869, -2.30071, 6.11205
6.75763, 4.11238, -6.40801
-0.151706, 1.09547, -4.67466
-2.16431, 0.53326, 2.52466
4.34287, 1.32084, -4.508
0.912461, -4.98783, 6.70888
3.49887, -1.80816, 1.45717
1.48713, -0.972318, 2.7855
4.06128, 5.59311, 5.14562
-0.120822, -0.961495, -2.01713
-1.03054, -4.45126, -4.23263
-0.694353, 1.9761, -2.74256
-0.837189, 3.52914, 3.24561
2.75649, 4.82954, 2.54838
-1.61556, 1.48562, 2.08168
-1.1078, -2.25878, -3.65172
0.924424, 1.10157, -3.70001
-0.450686, 1.19925, 3.03833
1.34483, -3.22184, -4.3375
2.72002, -1.96841, 4.32966
-0.449175, 3.99613, 5.46691
-1.34775, -1.26328, -3.57994
-6.94135, 2.673, 3.39624
-1.43183, 5.22089, 8.95336
-0.469019, 0.629258, 5.93819
0.393872, -1.40684, 2.67251
0.526848, 1.41069, -1.20633
3.43486, -1.15325, 4.58062
0.722038, 1.16436, -6.93969
-2.33858, 1.3161, 2.2018
-0.49165, 0.326324, -2.09351
0.509522, -0.615467, -2.49261
-0.233839, 0.520705, -2.40126
2.62302, 1.1901, 3.91298
2.51348, 1.08726, -1.52023
-0.432396, -0.811224, -2.56213
2.06515, 2.83665, 4.32466
0.911551, 0.306477, -1.55401
6.69001, 3.5456, -1.29725
-0.994518, 4.13395, 6.3724
-3.13323, 1.55983, -4.25874
0.757332, 2.40119, -1.60434
2.19855, -1.28213, -4.40508
-0.689224, -2.81377, -3.14128
1.26295, 0.670059, 2.9033
-2.68434, 0.780041, 4.98727
-0.385932, -1.61588, 4.64951
-2.27985, -1.08752, 3.23506
-1.3385, 3.15912, -2.77347
-0.841481, -1.13441, 2.60419
