1.78084, -0.390603, 4.36871
1.03587, 3.16849, -1.89132
-0.450801, 2.18, 2.44045
1.57555, -3.10514, -4.94937
-2.05317, 1.13309, 4.17382
2.75941, 1.45137, -3.14998
1.09364, -0.142235, -1.95934
-0.530553, 1.66256, 1.1906
-0.277751, -0.0586418, 2.83099
-4.70958, -0.846554, -1.15869
0.294377, 1.80391, 2.61712
0.792545, 2.06174, -2.1888
0.572391, -1.78158, 2.87953
1.78533, -2.5478, 4.36529
-0.558713, -0.599137, -2.9453
3.46875, 1.47635, -2.12667
3.62685, -1.4345, 5.59314
-0.191187, -0.0942299, 1.27306
0.437822, -3.47699, -3.74233
-0.05473, -1.97466, 5.10229
-1.2394, -4.20177, -6.03459
-1.73629, 2.41064, 2.60932
2.12234, 0.0485889, 4.22495
-5.78885, 0.245301, -4.94508
0.446183, -1.47582, -2.56118
-1.76778, 1.09837, 2.99058
-2.58661, -1.81607, -2.8712
1.519, -0.243203, -3.08697
-2.08264, -0.4272, 2.68837
-1.90055, 0.67517, -2.24055
-3.82584, 0.287109, -5.43547
0.975852, 0.664566, -2.37427
-0.566869, 2.82275, -2.5524
-0.0196104, -2.07585, -4.03514
1.15878, -1.15091, -3.23723
-0.165327, 0.894442, -0.990026
-4.2946, 1.12317, -4.60174
1.50407, 0.376944, -7.54534
-1.31979, -0.478758, -4.08262
2.26715, -2.66957, -9.75591
0.348405, 0.447924, 4.95011
0.694119, -1.86731, 4.58289
-0.247655, -2.10366, -4.39412
2.94715, -1.18885, -4.74448
1.73479, -0.0127232, 0.711283
-1.96626, 1.31075, -1.5728
-2.43832, -0.0592352, 4.69579
-2.73933, -5.53558, -3.70667
1.46572, 0.760861, -2.22274
-0.664186, 3.86597, -8.91397
-0.278927, -3.61659, -3.89683
3.78485, 1.29745, 6.86618
1.19825, 0.603779, -2.26203
1.52125, -1.76001, 2.6407
-3.21288, 0.312303, 2.74396
-4.68797, -1.57779, 0.854162
0.766343, 0.382647, -0.827074
2.98591, -3.07266, -7.72344
1.2758, -0.512193, -1.73298
-0.692775, -1.18363, -1.79727
0.352807, -0.465497, 1.32551
-1.51471, 2.98885, -3.87993
-2.63769, -2.34801, -5.81967
-4.62064, -1.2911, -8.45386
3.12954, 4.71532, -2.89783
3.05103, 1.97122, 5.62018
-0.515599, 0.438597, -1.26968
1.63917, -1.1245, 3.68323
-2.5478, -3.21758, -4.91577
-1.75592, 1.8322, -2.93756
2.95842, -1.75375, 4.57169
0.517988, -0.905228, 6.67124
-2.17766, -1.50852, 4.47712
-0.899302, -4.05713, 4.17018
1.98091, -1.22871, 7.03745
2.05489, 0.426775, 4.65227
-5.38736, 1.78168, 1.15019
0.232384, -1.25509, -2.64272
1.0428, -5.93058, 1.89034
0.924827, -0.904592, -3.19284
2.0808, 1.53769, 0.702368
-1.68208, 1.28871, -3.06501
1.52803, -0.579687, 6.03329
0.383052, -0.486276, 4.60189
-0.257937, -0.718683, -4.59616
-1.34072, 1.98909, 3.91108
-1.81349, 0.331469, -3.85955
-2.12492, -1.25211, -3.36882
-2.53756, 2.52082, -3.47014
1.0793, -3.17427, -6.16713
1.73804, 1.5169, -2.87013
4.65829, -1.07313, 4.73965
1.88019, 0.981228, -4.40357
0.294232, -1.62101, -3.56006
-3.38944, 4.8872, -3.91433
2.98171, -1.68574, -3.21074
-1.9503, 2.02646, 3.52047
-1.90325, -2.71802, -4.76803
-3.06273, 2.50983, -4.2755
-0.784155, 3.31294, -2.80417
-0.485261, 0.651568, 2.16099
-0.671261, 0.289093, -3.07261
1.51284, -2.00808, 2.42271
5.69441, -2.28286, 4.27546
4.06975, 3.38684, 5.12836
2.30073, -0.283623, 4.42818
1.01574, 5.04971, 5.04218
-0.397085, 0.972016, -7.41614
-0.5899, -0.0501302, -3.46759
-2.11435, -0.477023, -2.62234
-0.100559, 0.487582, 0.886607
1.14937, -0.565984, 4.88398
0.588043, -2.87684, 2.25771
-4.77031, 0.612166, -2.52715
0.780165, -1.03137, -3.25398
2.56466, 0.0776393, 4.84051
-0.549763, -0.608833, 5.12646
-2.92949, -0.498471, 7.34499
3.51505, 0.832626, 6.40095
1.06131, -0.663359, -4.17522
-1.26802, -1.68579, 2.2286
-0.306282, 1.00719, -4.9751
1.341, 2.95437, -5.77536
-0.968315, 0.282152, 1.30608
0.263819, -2.65295, 4.25219
0.478508, -0.721818, -3.29265
3.08608, 1.66743, -1.67456
-2.66064, 0.839929, -6.10716
0.667161, -2.98238, -4.42436
-1.6228, 0.303043, -2.41611
0.847819, -2.85214, -3.11572
-0.899504, -0.684452, 2.63044
-0.202539, -2.06439, 1.49621
-0.937587, 2.93172, 3.11584
-1.39938, -1.25879, 1.21129
-0.392871, -2.64768, 2.46786
2.14451, 0.233487, -3.8691
-1.53205, -5.33126, -2.61895
-2.92461, -2.20553, -1.04015
2.80048, -4.31337, -2.1797
1.57075, 0.916506, 7.04103
4.49061, -4.7377, 6.25617
-1.5478, 0.34882, -6.37781
-3.81519, 4.93021, -9.18955
-1.76974, 0.75399, -6.64141
1.40321, -1.85453, 4.3494
-0.321561, -1.52186, 1.56297
-1.29174, -0.158406, 4.34193
2.55644, -4.96504, -2.25846
2.00431, 0.213942, -2.42847
0.360438, -7.33049, -1.93069
-2.62653, 4.71608, 3.67602
-4.33402, 3.53407, 4.82321
-0.1121, 0.69163, 2.51476
-3.53146, -2.64841, -1.48357
-3.26198, -4.88027, -2.99827
0.941906, -1.13868, -1.12417
-1.12273, -1.72259, -6.05038
-0.66638, -3.03932, 1.99852
3.83425, -0.258055, -2.99329
10.4259, 3.12968, -5.1031
-3.16995, -1.90896, -1.62461
0.710024, -1.74951, -1.57027
1.05028, -0.747027, -5.52688
1.66879, 1.43605, 5.21714
1.76571, 3.80622, 4.53058
-3.83349, 1.04353, 8.8795
0.903964, -2.48216, 2.67139
-0.813697, -0.99391, -11.1667
0.465975, 0.178971, -8.6592
2.78995, -0.507679, 3.02715
0.00932446, 5.35882, 7.63956
3.363, -0.666848, 2.23992
-8.60567, 0.358415, -2.3119
-0.280441, 1.04615, 1.87395
-4.41373, 1.76955, -4.32184
3.75186, -2.91573, -7.84864
-0.901848, -0.282475, 4.2827
1.32331, 2.69362, -2.67272
-2.10319, 0.276356, -1.07778
0.710959, 0.638842, 2.75924
-1.73164, -2.48829, -5.47641
-2.63481, 1.0632, -3.02212
-0.649738, -3.16337, -2.67255
3.18142, 2.06481, -4.11389
1.0666, -0.526457, 4.71713
2.9207, -0.287601, 3.3141
1.60583, -2.47236, -4.51277
-2.25408, 0.490325, 4.82568
-0.0353631, -1.81342, 3.39114
-3.2292, -6.04196, 6.11498
-2.74006, 2.78226, 5.82088
1.38059, -5.30687, 2.56949
5.80742, -0.447696, 5.35649
2.66665, 0.531468, -4.25108
-0.306902, 2.88679, -4.81071
1.28265, -3.74729, -2.05222
-2.56531, 0.111019, 4.49888
-4.33105, -2.72659, 2.29053
-1.40535, -1.5927, -3.68351
0.929074, -2.52542, -3.34862
-0.331353, 1.72396, 6.93685
5.50341, 1.78809, 6.09477
-2.31184, -2.2038, -5.22633
-2.97148, -1.81015, 3.24989
2.5922, 0.474955, 2.50763
-1.03158, 3.68251, -2.27455
-5.92171, -0.586128, -1.49917
-0.86729, -1.10423, -2.88123
-4.1938, 1.14662, -7.24138
-0.248748, -3.92228, -3.47202
1.68526, -5.17975, -2.65773
-0.36777, -0.491238, 2.0433
-4.36578, 2.6418, 7.93736
0.802119, -0.284691, -5.90971
-0.0316189, -2.00901, -5.47904
0.238435, -2.00047, -4.65796
0.929991, -1.56626, -4.13245
-0.0785894, -0.445928, -2.17073
-3.33548, -4.04163, -4.42308
2.39178, -0.898034, -2.25143
-1.12164, -2.48699, 2.8697
1.58279, 3.62904, 2.83723
-0.923553, -2.43584, 0.421256
-4.11144, -4.13828, 8.82859
0.967901, 0.281142, 1.36736
2.46163, 0.927147, 1.26222
6.39759, -1.65655, 7.03034
-0.951668, 2.2126, -3.60165
4.68583, -2.64379, 3.62818
-0.915778, -5.71784, -3.04762
-1.98084, -1.62014, -1.71841
1.67738, -3.91265, 6.97631
0.762016, -0.553809, 3.56572
2.01461, -2.6838, -1.91214
0.705695, 0.462564, -3.78042
-2.45404, -0.0812946, -2.429
-3.74224, -0.192078, -5.37509
1.00408, 4.90954, 3.02728
-0.496308, 0.597881, 2.53433
-8.83731, -3.68819, -4.08061
2.44167, 0.496721, 2.39673
1.89153, -2.03218, -3.76666
-1.6464, 0.0812938, -3.52275
-3.70291, 0.448634, 2.87369
-2.66026, -1.51953, 5.21156
-0.802515, 1.18201, -2.22174
-0.466917, -1.99626, -4.6444
0.237297, -3.07263, 2.30218
-0.873378, -1.34453, 2.16316
-0.419269, -1.09823, -2.79891
2.52784, -0.397146, -1.5948
1.14426, -0.270676, -1.16875
0.873643, -1.63981, -4.81513
2.4329, -2.66992, -2.50936
-2.63769, -1.17417, -4.6072
3.70766, -0.568773, -3.47151
1.82196, 0.0755755, -4.16397
-0.210479, -0.901201, -0.732697
-1.95726, -1.57421, -3.95699
0.0991433, 0.950014, 2.48701
-2.4279, 0.102388, -3.2942
-1.49012, -2.25406, -3.20265
-2.31236, 4.90853, -2.24579
0.436697, 1.76915, -6.80168
1.56071, 0.360744, -0.753227
4.24645, 1.42296, -2.90969
-0.354122, 0.971795, 4.05791
-7.55814, 1.97305, -7.66449
-0.203399, 0.731982, -2.83814
-1.65655, -0.972654, -3.24906
0.272474, 5.39684, -2.58933
-3.4218, -2.84089, 2.4307
1.58654, 2.60756, 2.96984
-4.55809, 2.64716, -1.18782
-0.125019, -1.64201, 1.92516
1.66741, 3.06059, -3.11119
-0.599861, 0.826927, -1.89605
1.49915, -0.238723, -3.93332
2.5506, -3.25647, -2.95787
-1.84157, -2.73901, -1.89946
-0.924116, -5.86632, 5.07483
1.67395, -1.71029, 5.23833
-6.93662, 4.83603, 4.81282
-0.887087, 2.85782, 3.20292
-0.0920393, 0.623396, -1.26676
2.23357, 5.08064, -5.7091
-1.38008, 2.20234, -3.8236
-0.283666, -0.350826, 3.46962
3.18765, -1.26874, 4.80769
1.75826, 1.10566, -3.46703
0.10899, -1.81877, 4.7127
-0.199819, 0.952572, 8.46449
3.12275, 3.98536, 8.37263
-0.158508, 0.425414, -5.94272
-2.53214, -2.08674, -3.32134
3.66528, -1.59457, -3.59301
-0.700847, -0.111216, -7.19468
0.153011, -0.118152, 1.92241
4.44168, 1.11363, 3.15995
0.165434, -0.775733, 2.36171
-1.15133, -2.52452, 4.41937
1.39576, -0.482326, -3.90272
1.53913, 0.305842, 7.96428
-0.993035, -0.327905, -1.99849
1.20253, 0.446508, 1.58199
0.47957, -2.04041, -4.15416
0.309083, -6.4909, 3.11289
-2.98423, 0.84438, -2.32204
-0.00827417, -3.40518, -0.454805
-0.611419, 0.0451432, 2.34394
0.931389, 1.19832, 2.81383
4.40844, -2.68292, 7.20417
-0.405092, 0.616007, -2.253
-5.99256, -1.48562, -7.21888
-2.12323, -4.16439, -6.36707
2.17065, -0.490382, -3.77526
-2.1963, 2.45428, -3.01179
-1.45008, -0.216992, -4.45382
-0.466225, -0.638828, -3.03081
2.26264, -0.616843, -2.62736
-0.911995, -0.722314, -4.3552
4.1864, 1.45566, 3.71659
-0.640772, -0.313028, 0.970079
-0.775633, -1.0982, -2.37512
-0.553631, 0.404879, -2.74108
-1.15731, 0.819381, -2.25422
-2.41158, -1.14958, 2.02047
1.77463, 0.2161, -2.66869
1.21269, -0.280175, -1.68107
-3.52843, 2.44245, -4.58308
-4.29228, -0.0919277, -4.16715
2.39829, 4.06023, -4.30037
0.265385, 0.633699, -0.876546
1.99709, 2.46864, 6.59439
-0.622309, 1.78796, -3.51047
0.900334, 1.50808, -6.38093
0.902571, -3.09619, 5.18471
2.12456, -1.32175, 3.34198
-0.650654, -2.62086, -3.64013
-0.564415, 3.77265, 4.33978
0.430157, 3.25785, 4.01535
1.03101, 3.474, 3.10902
2.86322, 0.745488, -4.37797
1.64735, -2.47624, 3.79644
0.962835, 2.5236, -4.304
1.28014, -0.266437, -3.76214
0.0446053, 4.8215, -3.53743
2.73485, 2.6753, -3.33511
-5.12556, 1.19266, -7.86059
-0.883452, -1.76401, -6.54522
0.752357, 0.993875, -1.91754
0.399136, 1.11833, -1.87279
-0.723497, -0.0493786, 3.45427
2.08524, -6.12818, 5.76947
2.5116, 1.46037, -2.66492
-3.39475, 2.4511, -6.69789
0.666265, -0.582282, 1.58232
0.502601, -1.32603, -2.88152
4.07439, 1.95102, -4.55531
1.05504, -0.352062, 6.97444
-0.861646, 2.81904, 5.3705
-0.244889, 0.102782, 13.1611
-1.26106, 2.78686, 1.86465
-2.46347, -1.66014, 3.89087
-1.79378, 2.22186, -6.66661
-1.1613, -0.180614, 6.01068
2.02028, -6.85981, 3.10238
0.616809, 0.54885, -2.63111
1.36219, 0.172644, -0.465301
0.202815, 2.76852, 5.76618
0.257398, 0.725016, -2.95842
-1.44717, -1.26713, -1.04085
-8.82328, -1.03661, 4.45076
-1.05347, -0.515627, 2.31995
12.3877, 3.47737, 0.758196
3.65196, 3.93402, 6.69877
0.291383, -1.00303, 5.77704
1.77363, -0.297598, -6.21272
-0.313183, 1.48177, 5.04208
4.14062, 2.41366, 2.40244
-0.118331, -1.60347, 2.82994
5.59147, -1.00794, 3.74446
-2.75124, 1.41903, 6.83857
-3.92035, -2.11671, 4.36685
-6.02998, 4.10433, -3.17912
-3.18289, -0.388991, -6.14735
-1.12226, -2.40931, -6.86251
10.1716, 3.13553, 9.35235
-0.165756, -2.66198, 2.30898
-1.40315, -1.27016, 8.0839
-3.75013, 2.28997, -5.37538
2.42786, 0.650692, 6.71678
0.200889, 1.6996, 5.42165
0.919663, -2.85956, 5.34986
-1.88127, 2.76407, -5.29238
0.679863, -0.659022, -2.95871
-1.25087, -1.74565, -7.66047
1.71864, -0.995033, -2.4498
-0.575381, 0.786581, 2.58959
1.41032, 0.273871, -4.96521
2.20593, 0.830458, 2.33031
3.34699, 3.96412, 3.56931
1.37858, 1.32004, 4.73215
1.98934, -2.72974, 2.05986
1.52136, 1.09985, -4.74546
-3.51637, 1.31874, -1.9774
-5.60226, 1.25576, -2.04199
1.55992, 2.44418, 4.65357
2.17432, -5.1858, -2.98867
-2.47012, -2.62381, -3.24676
1.31377, -1.83281, -7.40171
2.23069, -1.82485, -8.96739
-2.05458, -1.16336, 3.66163
-1.89509, 2.11561, 4.07724
-5.7367, -4.24195, 8.19346
-2.02385, -0.0578413, -1.80482
1.58396, -0.995563, 5.20009
-1.63502, 0.732464, -3.40766
-1.10538, 3.91343, 4.0166
1.33275, -0.805093, 2.416
-2.6018, -6.38154, 5.26588
-0.855384, -7.19527, -9.2227
-0.781718, 3.00226, 1.76378
3.14344, 2.77453, 6.15874
0.252657, -1.78935, 1.94795
1.75975, 1.5341, 1.60842
-5.21942, 1.29687, 4.14682
0.920974, -1.50887, -3.76201
-3.58867, -2.16623, -7.22652
-0.0742503, -1.29289, -2.07299
-0.0183082, -1.81845, -1.09479
-0.305502, -0.65929, 2.57476
1.17953, 0.15572, -2.31548
-6.87277, 6.40074, 6.82972
-0.66841, 4.03756, 4.32984
1.76194, 1.08357, 2.93417
-2.04955, 0.60209, 2.52699
0.0688391, -0.32734, 1.44088
-1.80876, 1.55965, -0.707803
2.46024, -5.95581, -2.20675
0.273785, -2.18463, -3.16336
-1.63403, -3.9976, 4.63777
-2.66768, -2.35379, 6.29033
0.541391, -1.15908, 5.74374
-1.47224, 1.80056, 1.45096
-1.00593, -2.97272, 2.66349
1.6323, -0.886516, -2.88158
2.79781, 0.338099, -3.85736
1.23203, -5.49625, -6.46156
-1.97124, 3.51068, -4.93654
-2.7278, -0.81824, -1.75602
2.46962, -3.42545, -4.34802
-0.0456558, -0.833543, -0.853865
-0.187001, 1.38457, -2.76957
-0.63037, -0.651637, 2.17231
0.07788, -1.97744, 5.63192
-1.71897, -2.83427, -2.79153
1.79549, -1.14583, -2.98834
4.22242, 1.20171, 2.98252
-1.0338, -0.903865, 8.06461
-1.32856, 1.71489, 1.52152
3.77194, -4.17507, -2.29881
-1.34843, -1.12913, -4.59604
-1.77044, -0.36004, -2.59216
-1.36723, 1.92725, -7.38475
-0.846511, -1.8706, -3.89238
3.504, -7.65711, -3.17924
-1.33956, 0.887736, -4.20399
-4.04449, 1.61907, -4.94318
-4.79826, -0.928145, -2.44616
-2.90325, 0.217901, 1.77919
-3.46796, -2.18093, -2.91523
-2.09957, -4.73324, -3.17429
0.237717, -0.462546, -0.936896
-2.91654, -2.36331, 3.08692
-2.3612, -0.278986, -2.30976
0.212395, -0.746888, 1.22079
1.44871, 4.26317, 2.70841
-1.02188, 2.04056, -5.29886
-3.42265, -0.9097, 1.06062
0.360577, 1.34972, -1.69995
2.54788, -2.07475, -3.66707
4.48931, -2.93248, 6.44515
-0.645112, -0.173219, -8.03977
-3.288, 1.20227, -2.50225
-0.241586, 0.553093, -3.82175
-1.86979, -0.405086, -1.31273
-8.31817, -1.66843, -2.14153
-0.652948, -0.833307, -4.55944
1.97682, 2.08608, -5.33322
0.97896, 0.58375, 1.11642
0.916345, -0.429249, -0.991908
0.969866, -1.39387, 5.82607
-1.4104, 2.34778, 1.7004
-0.142017, -0.0250978, -4.44029
-1.83508, -3.95079, -5.26302
-2.54406, 0.5431, -1.15426
-1.31474, -0.732549, 3.16917
3.00432, -7.04172, 4.52094
2.60871, -2.99638, -0.816981
1.52338, -0.108879, 3.78549
3.9678, 0.131314, 3.79208
-0.0312683, -1.02182, 3.16208
3.83706, 5.26478, 8.24513
-2.09319, 5.5958, 4.84669
0.0412009, -2.11835, 2.22471
-4.5706, 1.15874, 4.14486
-3.98044, -6.4347, 2.92361
0.678687, 1.46053, 3.19205
1.00725, -5.13186, -1.51656
-3.78168, -0.387223, 2.30244
0.82262, -0.613809, 4.43653
0.875594, 0.568162, 3.50888
-2.39769, -0.847892, 2.91805
-1.39107, 0.954458, -4.56531
-3.8023, 1.70145, 4.43424
-1.09698, 0.567615, -2.36801
1.07767, 4.54177, -3.47801
1.65687, 0.732979, -3.44777
1.63252, -3.30985, -4.02553
-2.78801, -3.23662, -5.15312
-2.12375, -1.9763, 3.48029
2.0019, -1.7315, 4.71647
0.870749, -4.41769, -5.02349
-0.407484, 1.17641, -4.96056
0.781335, 2.48762, -4.22759
0.140216, 5.27934, -7.66061
-0.747113, 1.186, -0.788951
0.575399, -0.397321, 4.46836
1.91938, 2.43136, -7.65565
0.250752, -0.398406, -3.65717
-1.83341, 2.7111, 4.00994
-6.56939, -1.79589, -3.09543
-4.29471, -0.282655, 9.43524
-0.0275461, -2.91317, 3.5198
1.99289, -2.78838, -3.37694
-1.36211, 0.998479, 1.10527
5.36102, 2.15812, 2.57889
1.01576, -1.96989, 3.99035
-2.48458, 1.76475, 5.81941
-4.45696, 0.603296, 3.54487
-1.62584, 2.77853, 5.71533
1.39396, 2.43583, 3.13205
4.22657, -4.23984, 2.80165
0.301516, -1.02296, 6.13002
-0.482123, 1.5549, 4.43648
5.86789, -1.81141, 3.13165
2.04794, 0.105881, -3.21765
0.638809, -0.495555, -4.82486
1.20009, -0.312866, -2.29813
1.03514, -1.59539, -0.902439
1.14103, 1.63113, -2.68079
-1.45537, -4.30895, 1.98825
0.570357, -2.59192, 5.49733
1.61463, 1.15703, 4.72816
-4.3066, 5.44967, 1.93828
-2.72553, -0.27865, -3.53242
-0.501656, 1.52806, -1.57663
2.55428, 0.292068, -1.72248
-0.785643, -1.17791, -2.89035
0.424275, 0.402444, 2.2528
0.57693, -2.06166, -2.47625
1.86632, 0.345476, 6.38631
1.80363, 0.117536, -2.86699
0.714198, -2.03346, 2.04766
1.41945, -1.51014, 3.38161
3.28773, 1.33905, 7.43788
2.47823, 1.27746, 2.03956
-0.970907, -0.0392221, 4.72861
-0.510399, -3.22834, 3.01008
2.42074, -1.37717, 2.06716
-0.260144, -0.966172, 2.28561
-0.512776, -0.929276, -0.903119
1.10134, 1.21302, 3.71037
1.07494, 1.09917, 2.89437
0.634317, 3.85832, 3.21444
0.641035, 2.49689, 4.48962
1.20523, 1.51443, -3.9265
-1.13488, -0.893493, -2.44163
-0.740927, 0.383642, -2.47942
-1.28343, -1.20669, -4.28269
2.78643, -0.934754, -2.02783
-0.629005, 2.92897, 2.61968
0.136584, -1.07055, 5.01989
5.08209, 1.55489, -2.47552
-2.86628, 0.389945, -3.82595
3.94918, 0.247323, 2.47283
-0.39627, -2.29849, -3.84271
0.527153, -2.27068, -3.99429
-3.68453, -4.43529, -4.97243
1.28153, -0.28, -6.28214
1.7819, 0.777974, -6.17261
0.587111, -1.14553, 3.94558
2.32396, 0.755362, 1.85915
0.159634, -2.09546, -2.98353
2.33143, 1.14347, -5.51758
-2.03891, 3.73703, -2.42983
-0.635257, -2.98622, 5.89589
-0.179758, -1.21572, 1.56747
-1.79421, 5.54527, 2.81132
-1.57481, -0.00558199, -2.14541
-2.8759, -0.0953222, 7.30347
-1.63736, -1.40302, -1.01594
3.58703, -3.61782, 5.815
4.06278, 1.60621, -2.57773
1.19028, 3.83309, -8.2651
-1.64681, -0.339597, 1.36412
-2.97219, 2.72015, -4.345
1.79377, -1.165, 3.41061
1.51602, 3.61993, 2.0549
-4.43967, 2.23321, -6.07202
-0.11211, -3.5082, -8.07874
2.53058, 0.0802788, -3.03574
0.636353, 0.706811, -5.26559
-2.28082, 0.138084, 4.77535
-1.24691, 1.09755, -1.83184
-5.17291, -1.89609, -5.64868
3.17148, -4.10898, -4.43426
-0.0199071, 2.95759, -3.82422
3.71697, 1.24755, 5.03969
2.4467, 2.21367, 1.27062
-1.26046, -1.73655, 4.79195
-1.22414, -0.122024, 1.67133
3.52432, -1.4676, 9.99081
0.0643334, -0.743862, 5.7704
1.18733, 0.285452, 1.93865
-0.630982, 1.33448, 3.55977
0.251648, -1.95277, 5.89765
0.137881, -2.04887, -1.56966
-3.95993, 5.04185, -5.83988
1.12865, 0.372726, -3.00235
0.840201, -2.18012, -5.20814
1.87629, 3.70295, -1.85021
3.52066, 1.75507, 3.23683
-2.43436, 3.45483, 2.84706
1.29617, -1.7849, 1.62809
-0.833335, 1.28679, 2.99628
2.35079, -2.27855, -2.03188
0.0778623, 1.77095, -2.67928
-2.59708, -4.41448, -4.26284
-4.11652, -6.20543, -5.14131
-0.545004, 1.99158, 0.686429
-1.69961, 0.728244, -1.71707
0.595384, 0.661519, -2.62464
2.0234, -3.66897, 1.78505
-1.36701, -0.0754968, 1.12095
-4.80775, -0.286727, -4.90379
-0.894309, 0.478036, -0.545055
-8.43927, 0.633887, 8.69277
0.232992, -0.519982, -6.82476
1.4365, -1.45582, -1.72589
-1.16475, 2.85171, 4.03107
3.29106, -3.6556, 3.11382
2.93897, 4.07783, -4.44845
-1.33806, -1.90552, 3.9666
-1.6709, -1.02078, 2.88993
0.893843, -3.07409, 5.15947
-0.31659, 2.80235, 4.28716
1.19959, -1.85296, -1.09766
0.827276, -0.0915252, 1.41761
1.7295, 4.65879, 4.48268
3.93298, -1.36496, 3.11195
-0.27389, 1.88881, 4.18147
-1.15616, 1.67486, 7.27639
-0.0704166, -0.294569, -3.82587
0.858149, -3.81906, -2.59085
0.490273, 0.80506, -1.41201
-4.82936, 1.06807, -1.88643
-0.453801, -0.228777, -2.16689
3.07525, 7.22397, -7.45314
2.09722, -4.96669, -5.09389
-1.64231, -1.61926, -3.77903
3.79467, 0.896206, -4.05414
-1.17632, 0.185173, -2.3124
1.06136, 0.189592, 1.23065
0.161903, -0.542742, 0.749845
1.95999, 0.00142774, -4.06086
-1.4184, -2.31005, -4.81262
8.50168, 0.674285, 2.57483
0.430301, -1.2774, -1.04665
2.72528, -3.49965, -5.34384
4.45139, 0.781998, -10.3203
0.374329, -0.95178, -2.57616
0.44088, -5.11266, -4.18801
-0.735287, 2.77511, 0.948156
-4.10232, 4.69671, -6.3643
-0.378715, -0.0638593, -1.97763
-2.76844, 1.8869, -3.35312
0.867479, 2.13115, -1.38903
0.995622, 1.04822, 2.53407
-3.11523, -0.762632, 5.39412
9.36556, 5.13636, 8.4454
1.11731, 2.32194, -5.91678
0.879151, 1.41071, -1.77594
0.803486, 0.587129, -1.83061
0.33673, 1.79913, 4.38007
-5.85356, 3.9046, 5.58138
-2.34145, -1.73778, -5.5338
1.44333, 1.58599, 5.61209
-4.07168, 8.6375, 6.0027
-5.35732, 0.366909, 5.91947
-0.380268, 1.70896, 3.45767
-4.00658, 0.956738, 3.64485
1.55938, 0.0215321, 7.99474
-0.535792, -0.579897, 3.17501
0.990185, -0.280574, 1.92903
-1.48504, 0.097816, -5.60713
2.49958, -0.0477765, -2.45453
-4.37976, -0.0822743, -6.08142
-0.42462, 1.15219, 5.57551
-0.977487, 2.62614, 2.28299
0.37607, -3.83618, 2.43102
0.551918, -4.01544, 3.51686
-4.49915, -1.90638, -5.89939
-3.51704, 0.608235, -6.7062
-1.22646, -3.22145, -2.49363
1.43214, 2.53541, -4.67892
2.53108, -2.04546, 2.11113
-0.240838, -0.883389, -5.05723
-4.26079, -2.82566, 1.53121
1.02442, 4.28536, 6.38422
0.875641, 0.276194, 1.59955
1.34025, 1.42311, 6.38968
1.12336, -0.712025, 3.16081
0.509083, -0.682512, 2.46363
0.0576024, 0.334283, 2.48683
-1.69661, 4.36946, -8.09349
1.60559, 2.48787, 2.42627
-2.12557, 4.04647, 5.68364
3.00621, -1.16596, 4.98424
-0.262626, -0.841753, 4.31734
-0.159263, 3.91768, 3.49511
6.26304, 4.57764, -1.13432
-1.1453, 1.1388, -2.2848
-0.442959, -0.313599, -1.87051
-0.0994763, -0.981559, -1.39473
-1.56003, -2.63461, -1.20232
0.88398, -5.07769, -8.26667
-1.2203, 0.0738917, 3.33889
-0.433349, 5.05723, -2.01517
0.553428, -1.57754, -4.54199
2.67276, -1.90619, -2.9646
4.18309, -2.52525, -4.55217
0.340968, 1.76731, -4.21503
1.83274, 0.520754, -2.93964
-1.59488, 0.712079, 2.59076
-0.343522, 2.3077, -1.88601
-7.06574, -2.19494, 1.61713
1.55719, -0.211086, -2.10021
-2.32025, -4.60123, -3.02447
-0.69461, -2.52069, -1.45594
-3.73814, 0.503478, -1.79581
2.85539, 0.289241, -2.18256
-1.83953, 1.41365, 3.09112
-0.948284, -1.248, 2.53268
6.92146, 2.25573, 2.72563
-1.49082, 5.12374, 5.21685
-0.781491, -1.8317, 4.13738
-2.30656, 0.0143228, 6.16883
-0.542935, 2.45649, -3.20532
0.629879, 0.673275, 3.09925
-2.43157, -0.687056, -2.6605
-0.416647, 3.64474, -4.00321
3.72522, 3.25274, 4.96451
0.668214, 0.460291, 1.10362
0.0467059, -0.846448, -7.83511
-0.754746, -1.44733, -2.25603
-0.716309, -3.56138, 2.01994
1.5885, 0.842617, 4.358
-0.0078555, 1.68207, -1.98282
2.32841, 4.49372, -3.72934
-1.53326, -0.413141, 3.05441
-2.35186, -0.523607, -1.79952
1.3774, 0.550283, -5.1547
1.93425, 0.541057, -4.70968
1.98139, 0.927696, -1.33701
0.117756, -1.44275, 3.12349
-1.00451, 0.457807, 3.65522
-5.05357, 0.0933091, 5.07492
6.89317, -1.81745, 4.71691
-4.03381, -5.89769, 3.28499
1.28971, 1.1073, -2.96892
-1.66538, -2.11228, 2.70473
1.82066, 2.0801, -1.21553
-3.47446, 0.935869, -6.95225
2.81922, -1.1036, -6.73941
-6.10934, -5.59219, -3.48298
0.784758, 0.149114, 2.09883
-0.921378, 1.67085, 2.58569
-1.20987, -1.38488, 4.47349
1.92368, 1.44554, -4.21571
-2.30878, -2.89735, -1.89928
0.108885, -0.707908, -1.1582
-3.55707, -1.69738, -2.21752
0.792057, -6.02927, -2.19989
0.46455, 0.00630349, 2.02708
3.92842, 3.10863, 2.88018
-0.769287, -2.34239, -2.53535
10.588, -0.826971, -5.12124
-1.12149, -1.97994, -7.58985
-0.125443, 1.63777, -4.41744
-6.18126, 3.1623, 7.42169
0.463244, 0.650391, 3.17633
-1.95602, 0.0845389, 2.43609
1.03114, 1.18983, -2.74482
-3.30874, 1.44918, -2.63971
-1.09148, 2.55563, -4.43592
1.49961, -1.15331, 0.851561
-2.64141, -3.63097, 3.52525
-1.87399, -0.264262, 2.21776
-0.72738, 2.22894, -3.70967
-0.828488, -0.822824, -6.45475
-2.41965, 1.32299, 7.90507
-3.40381, -1.74964, 2.27137
0.190582, 2.81401, -3.12416
0.676807, 1.93264, 1.48003
-0.339821, -1.94927, 5.43954
0.393514, -0.0578595, 1.99006
0.483187, -5.10152, -3.78281
-3.64061, 2.11849, 4.50531
0.162606, 0.8533, -3.01471
-5.15931, -2.21379, 2.85683
4.51025, -4.6474, 2.39203
3.54366, -5.16745, 5.82312
0.977406, -0.661145, -2.89174
3.58737, -1.88271, 1.88376
-0.439211, -0.30767, -2.82199
-1.59712, -0.233559, -7.2843
-0.0494067, 3.34653, -5.7513
0.248288, -0.0639099, 3.26423
-0.878797, -2.28198, 0.588906
-2.06187, -4.68442, 4.38538
2.68711, -2.644, 4.42591
-0.643019, -2.99276, 2.42529
-1.66196, 0.728657, 4.07983
3.69366, -2.45155, -5.58615
-0.412539, -2.79398, -2.74132
1.68099, -1.34422, 2.14145
-0.609464, -1.00101, 2.06111
2.55458, 0.256026, 5.42054
-4.11385, -1.98235, -3.2759
-1.6236, 1.13563, -1.31256
-0.140711, 2.77742, -2.72952
-1.83268, 0.831975, -5.20119
-3.33776, 0.225831, -4.62487
3.59721, 3.60512, 4.1791
-4.16063, -1.57833, 4.37454
2.0965, -0.28905, 2.41639
0.27569, 3.1526, -2.53985
0.442372, 7.15623, -9.92348
1.31144, -1.3716, 4.2898
-0.416818, 1.755, -2.1607
3.18864, -0.210517, 3.06708
-5.40826, 5.7728, 8.09045
0.395917, -0.523607, -4.5107
3.31873, 2.84025, -4.54423
2.8879, -1.44587, -4.67041
-1.86929, 0.3428, 4.05166
-2.00435, 1.19403, 4.65012
0.301098, 1.44028, 2.22911
-1.46091, -0.59904, -4.47292
-1.66158, -0.714378, 1.25138
-0.945417, 0.900627, -3.56462
-0.178511, -1.10951, -3.87434
2.94129, -2.96941, -4.93142
-0.480785, -1.64335, -1.9777
-3.47262, 1.93236, -7.13513
-0.376301, -0.0617671, 2.56621
-0.388174, 1.93266, 3.69903
-1.44122, -4.98668, -7.2711
3.70556, -0.612482, 7.36019
0.362536, 2.06215, -4.90642
3.17483, -1.17674, -1.47433
-0.0572722, 1.052, 3.87479
-6.20844, -8.1917, 7.45517
-4.94119, 0.9976, 2.27585
0.584475, 0.106522, -2.52055
-3.20035, 4.7258, -5.43382
-1.40353, -5.43049, 2.01083
1.19714, -2.32339, -1.66201
4.34104, 0.543053, 7.92799
1.15479, 1.46248, -5.21756
-0.176463, -1.21833, -2.15265
3.27437, -1.16912, 3.34205
-4.36839, -6.41323, -2.69223
0.202113, 2.30889, -0.807863
-4.69372, -0.557003, -7.44853
1.52054, 0.544887, 1.77257
-2.06382, 1.64731, -7.6196
-0.172914, 0.460062, -2.62309
3.30522, -2.40777, -12.0778
-1.7268, -0.3021, -3.16181
-1.63348, 3.0998, 1.36246
-2.26364, -0.430412, 2.0516
0.856547, -0.42528, -0.548535
-1.80328, -3.20452, -5.42803
-2.73818, -0.0876823, 1.66674
1.72725, -0.930748, -1.24795
4.15762, -3.76881, 6.78882
4.94438, 0.893278, -3.20581
1.4842, 0.613825, 2.34855
3.87658, -4.57408, 2.96519
-1.08306, 2.87746, -3.3683
3.20696, -2.5093, -4.37687
3.74061, 0.286468, -2.05984
-3.51607, -0.304737, 6.86715
1.69926, 2.69985, -2.90185
2.06351, -1.20331, 4.95184
2.82829, -0.165168, 3.48179
0.136161, 0.337782, -4.7662
1.37289, -1.01528, -3.43075
1.5946, 3.57153, 1.42802
-1.58446, -2.61423, -3.52606
0.389788, 0.404824, -1.023
-2.53733, -0.782, -8.79593
-0.342412, -2.39798, -3.20182
-0.781848, 3.82511, -3.08281
2.02449, -0.339428, -5.96101
-9.42599, -2.00668, -4.00051
-1.01303, 0.627923, -3.47574
-4.80796, -10.2287, -6.96656
-0.56326, -0.353122, 3.50062
1.41323, -1.2923, -1.48365
-7.18343, 1.36555, -1.58605
-2.24446, 0.450306, -3.47956
-0.70708, -1.10811, 5.29786
0.650347, -3.42154, 6.51922
1.66749, 1.31992, -2.13168
1.06474, 6.7467, 4.04137
1.03617, 2.16763, 4.23039
2.47856, -0.382467, 7.87854
0.363793, -0.671115, 1.86806
-0.964683, 1.1656, -4.11595
1.50111, 1.00666, 5.32105
-2.50274, -4.21414, -3.80426
8.04, -2.2718, 3.6706
3.77726, -0.44795, 3.88748
-0.410212, 1.22264, 2.85929
-0.0587842, -2.21354, -2.85462
5.61957, 4.02304, 5.64421
0.587687, 1.67676, 4.85572
-4.26719, 0.622773, 2.36502
2.61375, 2.60275, -2.78813
-0.991138, 4.70146, 5.00202
0.204228, -1.90833, 6.02639
2.46667, -1.25851, 4.80326
-1.18969, 0.949671, 1.41645
-0.931905, -4.51144, 6.65419
1.77557, 2.8098, 4.75349
2.50518, -0.719352, 2.47216
1.92747, 1.30604, 2.18609
-1.63409, -0.069251, -3.72749
-2.59059, -5.86587, -5.17503
-0.759435, 0.267244, -3.15274
4.40918, -3.01974, 1.38235
1.32031, 0.42917, 3.73096
0.291692, -2.48497, -0.770516
1.66857, 1.3448, -4.28423
-0.448011, -2.58058, 4.42672
0.91168, -2.32453, 9.65281
-2.7611, 1.81694, 3.47078
-1.85698, 3.40069, 5.33788
2.55685, 2.0384, 1.00502
3.21692, -0.355601, 3.83031
-2.35023, -1.20541, 4.61806
-0.833477, -1.69042, 5.45285
1.49977, 1.33643, 2.37204
-1.44105, -1.20939, 3.55388
0.285701, 0.539733, -0.579613
0.286571, 0.689732, -4.94393
-0.916009, -0.750787, 1.14792
-0.459626, -0.392621, -0.781254
0.922542, -0.392351, 2.66734
-1.05299, -2.36642, -1.66664
1.38286, 2.16894, 3.51296
-0.0465597, 1.88436, 3.90444
-0.230983, 1.85871, 2.91976
1.12738, -0.665197, 1.80009
0.752804, 0.557918, 3.36051
-2.8112, 3.86863, 1.26897
-0.540606, -3.0533, 2.20886
-0.376753, 1.36389, 4.19454
0.656666, 0.231331, 2.44157
-4.69473, 4.71987, 3.965
-1.14948, -0.0617, 4.90805
2.5851, -3.85478, 1.35056
-0.306808, -1.80734, 5.20795
0.728887, 2.01619, -3.7371
1.39312, 4.33645, -3.0264
-0.26058, 0.0787432, 4.06026
-2.13809, -5.73556, -6.203
-6.7441, 6.81511, 1.8502
1.01548, 1.19292, 5.05556
4.36056, -6.22312, -7.90843
-0.298246, 0.337844, -4.21547
2.51582, 2.13683, -2.79651
-1.14024, -2.99123, 4.84901
-1.1216, -1.78277, 3.30281
-2.07106, 0.71562, -2.87179
-0.909765, -1.02704, -1.62417
-1.89161, -1.34153, 2.52936
1.0354, -3.27222, 2.92592
-5.23193, -1.14709, 8.46842
-3.41892, -1.73781, 0.913625
1.65328, -0.145387, -0.982599
-0.802331, -1.48585, -2.38223
2.9397, -0.352175, -3.98907
-2.2875, 1.44079, -1.2831
0.114067, 1.02269, 2.16115
-3.60352, -3.12006, 9.00263
2.47219, 1.75717, -2.49476
1.07387, 1.74319, 3.23624
-4.02588, 2.39901, -5.56241
-1.36626, 0.143592, -1.67519
-0.663218, -3.85007, 5.85283
-2.10689, 1.63201, 2.91439
-1.19501, -0.328975, -5.88553
6.15148, 3.70651, -7.63402
-1.16553, 1.0026, 3.01274
-2.70188, 1.07194, 4.19122
2.98, -1.43786, 8.56658
3.16368, -2.7047, 3.28566
-2.21272, 0.621372, 1.7278
1.49734, -0.718367, 1.80747
-1.39426, 3.73449, -5.23287
0.563874, 1.80194, -0.878544
0.629347, 0.102722, 1.60841
4.73797, -6.62878, 5.8037
-1.07707, -0.429813, 7.1129
3.53506, -3.27859, 4.05377
3.52102, -0.540285, -4.12916
-1.57586, 2.63222, -5.31924
4.31648, 0.899, -3.06165
-1.37868, 0.942021, 3.70747
0.519763, 0.764779, -1.94669
2.19862, 3.29988, 5.86167
3.80812, -1.74119, -1.4222
-1.74169, -3.24537, -3.36181
0.723291, -4.04025, -1.43798
0.394542, 0.943113, -1.28641
2.76044, 2.50724, -5.29633
-3.33904, 5.01119, -2.33871
1.56716, -0.155741, 2.75388
-1.74775, 0.979936, 1.4935
0.74976, -2.48744, -1.04594
-4.23662, 2.03984, 4.93285
-0.716232, -3.75909, 1.82811
1.0194, 1.55611, 1.23845
-0.558342, 1.7031, 1.24989
3.57495, -3.43692, 2.64331
1.25127, -0.130556, -4.73714
-2.28886, -0.832897, 1.15145
0.247498, -5.15242, 1.90711
0.43068, 1.9085, -2.52721
2.40311, 0.691497, -3.34201
-1.61485, 2.94217, -2.49525
1.70696, -0.450515, -5.33543
-2.25522, 1.47631, -1.95091
4.19812, -2.97585, -4.29238
3.71888, -1.52224, -6.56763
-0.986635, -0.562397, -1.32395
-4.10811, -1.94596, -6.16126
3.01743, -2.54884, -4.29338
-0.0207904, -2.14072, -2.17373
-2.04102, -0.729671, -1.16177
4.08808, -1.56445, -4.05882
1.12707, 1.84101, 5.9287
-1.15626, -1.51787, -2.13516
-1.24219, -3.79781, 4.78677
2.26153, -1.06168, -4.77704
2.97651, -3.20005, -6.79317
1.67549, -1.82555, -2.70129
0.308186, 1.39324, 0.698854
0.916956, 1.91402, -2.37714
1.00675, -0.180164, -1.55056
-1.12906, 1.61743, -3.23876
3.99957, -2.45656, 1.15017
-3.40862, -2.3686, -6.08244
0.742298, 1.55388, 3.02917
-7.7736, 3.22371, -6.56342
4.05721, 1.11209, -1.91285
-0.940247, -0.513628, 1.00937
1.91448, 2.57919, 4.56132
0.662667, -3.18609, 3.4051
-3.13022, -2.16861, 2.54247
5.90697, -6.03066, -4.20897
-0.113549, -2.57786, 3.56909
-2.37854, 3.44939, 6.43302
4.82105, 0.326809, -1.11958
-0.975482, -9.22291, 3.49716
-0.864637, -0.735944, 0.728067
-2.71201, 5.32937, -2.07764
-0.635244, 2.41653, -1.52956
-2.32427, 0.816297, 2.45489
-2.21473, 4.58654, -1.73315
1.01092, 2.79319, 4.80246
0.210053, 1.31584, 1.12063
-2.18755, -0.456373, -2.99752
-0.671685, 1.03136, 9.02906
0.147707, -0.637372, 3.48742
-1.18758, 1.22269, -1.16873
-0.641725, 1.07454, 2.80845
0.422957, 1.89075, 4.17863
-2.29958, 1.21617, 3.38184
-1.0433, 2.9269, -1.72831
-0.464908, 2.25422, 6.40051
-3.49677, 3.86842, -2.23431
1.64738, 0.369696, 2.569
0.137324, -0.10601, -5.12599
-2.88867, -0.900066, -6.24849
1.85166, 2.42007, -6.13778
0.309402, -0.386501, -1.847
-1.74557, -1.07908, -1.75011
0.906397, -6.02241, 2.91029
-0.0375174, 1.10018, 2.26525
0.327725, 1.10474, -6.54863
-3.93209, 3.39268, 4.69528
0.608372, 2.79281, 3.51785
6.67052, -8.66218, 4.37854
-2.64176, -4.5177, -3.22026
-2.70984, -3.44246, 2.91081
2.87311, -2.43517, 5.22996
1.72521, 1.86794, -3.41082
1.15824, 0.76127, -2.63968
2.24413, 3.02787, 6.28093
-2.06564, -0.419869, 3.26124
0.794225, -0.690786, 0.800136
1.095, 0.549678, -1.69604
0.801264, -1.21816, 3.09815
4.98504, 0.804694, 5.37586
1.35504, 3.72406, 3.8598
-4.72939, 0.759408, 4.41152
-3.95621, -6.22749, 9.88958
0.924919, -1.82551, -0.907093
0.564101, -0.270528, 2.05123
2.48618, -0.131573, 1.34467
-0.279475, -3.79959, 3.39643
2.3234, -2.00364, -2.86401
-1.542, -1.69624, -3.45925
2.55856, -1.83889, 1.60995
-1.83029, 3.08793, 4.8689
-0.276641, -1.46584, 5.05859
0.989552, 1.44131, 3.66554
3.20173, -1.16933, 7.08382
0.832139, 0.188057, -1.27889
3.19771, 0.224352, 8.67887
-1.91198, -2.76162, 4.33744
-0.589043, 0.149179, 1.88641
-0.383545, 0.596513, -4.61934
6.56815, 3.02256, 4.97488
1.18638, 0.9363, 2.26
5.05104, -2.49098, -3.97121
-2.72782, 8.19765, -6.83853
-1.66418, -2.12865, -3.43588
4.78776, -2.77325, -2.86392
-1.89589, -3.46825, 0.91099
-0.852197, -0.202213, 4.41207
2.2327, -0.00453724, 2.013
1.44603, 0.897743, 3.41143
1.0512, 2.28906, 2.52804
0.597702, 1.96683, -3.83418
2.90911, -1.1539, 2.62393
0.291906, 0.437094, 5.90718
4.95562, 0.65633, 5.66014
-0.284054, 0.396498, 7.07544
-2.60288, -2.14438, -3.8834
-0.213265, 2.44983, 3.23073
0.947524, -0.763173, 1.63575
1.09913, 2.0993, -1.09957
-0.516492, 0.742424, -2.80208
2.23099, 2.85823, 2.61116
1.65064, 0.271908, -0.218119
-0.00510405, -2.17926, 4.6545
-1.98886, -0.766671, -3.61976
1.31757, 1.32216, -4.34809
-0.0691278, 0.461173, 3.07493
-1.6408, 0.770713, 2.709
-0.564618, 1.77931, -1.85593
1.98279, -1.32268, -6.32085
3.46152, 1.58853, -8.6163
-3.60732, 2.19618, 0.769067
3.13459, 0.0372723, -5.91964
-1.94772, 4.12937, 4.13056
-2.68651, -2.96528, 2.7331
-0.068732, -0.774275, -1.61532
1.27579, -1.9806, -4.06439
2.00305, -3.62626, 2.99253
-2.65866, -1.31252, 2.33954
-0.36812, -0.468795, -3.4298
-3.4783, 0.685907, 4.91746
1.0275, 1.88637, -3.39187
-0.117135, 3.10617, 2.67573
-3.0695, -1.52984, 3.05269
1.40216, -0.384685, -1.86442
-1.69839, 6.2265, 3.12446
-0.737346, -0.0413493, 2.04699
-1.27741, -2.11748, 3.72136
-1.5434, -1.09282, 4.336
-0.537049, -1.44319, -2.75954
2.46659, 0.251192, 5.45663
-1.09265, 2.32876, 9.06728
3.22065, 3.86054, 1.71689
-0.969483, 1.27496, 1.18247
1.98808, 0.799132, 6.89174
-1.99585, -1.72463, 3.75843
-0.267718, 3.49374, -3.53521
-0.956002, 0.700002, -5.5863
-2.52127, 4.86213, -2.97306
-4.44344, 1.27644, -4.39321
-1.22797, -1.35439, -1.33788
0.736894, 0.376408, 3.93523
0.647119, 2.44792, -4.77291
1.14528, 2.81747, -3.00056
3.31606, 1.06552, -1.75916
-2.09021, -0.665273, -10.8653
0.385892, 1.32419, -4.13431
-1.27383, -1.04825, -3.22145
1.61346, 0.20637, -4.20818
0.0195573, 1.72646, -8.49803
-0.256974, -3.05308, -8.0244
0.93691, -0.997479, 1.66302
-0.203138, -2.00011, 5.00406
3.01889, -1.619, 5.8244
-3.42269, -1.47996, 13.5653
2.18317, -5.62696, 6.26143
-0.611853, -1.14492, -5.15107
1.78839, -0.560175, -2.71416
3.93952, -4.25324, 4.56167
3.16633, -0.0678041, 7.03972
0.271586, -3.01389, 3.97053
-0.0828075, 2.53657, 5.11358
4.68373, -2.6145, 2.58737
0.0939056, 1.77958, -4.01553
-1.42153, 1.59869, -3.54311
0.488443, 0.83352, -3.10691
-2.00783, -2.068, -4.34085
0.503243, -0.344508, 3.10231
-8.43097, 5.30247, -4.29452
0.259538, -1.50939, -2.0924
0.430871, -5.81047, -3.26423
-2.66986, -0.554473, -6.09101
-2.41791, -2.3781, -3.27854
2.10139, 0.452424, 0.750735
3.70819, -4.09825, -4.03464
3.19644, 2.01602, 3.2061
-2.24828, 1.52955, 1.64024
1.0167, -2.83264, 1.86837
-1.80571, 2.48613, 3.41274
0.132374, -3.30539, -4.25982
0.143757, 5.84179, -9.86276
1.80151, -0.353503, -6.98012
0.740348, 0.0417548, 2.50361
3.90326, -3.57768, -5.69304
-1.46051, -3.60633, -4.85582
-1.66251, 2.56446, 10.7211
-0.882425, 1.39315, 2.34427
-5.09731, 1.53175, -6.05328
2.22041, -0.66843, -5.20211
-1.97248, 1.88668, -4.13776
-3.85195, -0.424425, -4.64034
3.46109, -1.76096, 3.61616
0.685704, 2.86367, 4.93017
-0.413506, 3.4325, 5.51727
0.338484, -0.783074, 1.18955
-0.479056, -3.75435, 3.32655
4.64248, -2.73546, -2.02074
-0.294678, -1.59284, 0.421619
1.64517, 0.891275, -3.8054
-1.84569, 1.45092, -2.31239
-0.343288, -0.929468, -3.12441
0.246264, -4.15266, -1.15702
5.19675, 0.249256, -1.86266
2.53759, -0.201543, -1.82452
1.29812, -0.86704, 4.39073
-1.51013, 2.3413, -4.11673
2.8351, -0.345802, 7.09977
-1.21285, 0.786739, -3.99053
-2.05241, -3.33175, 7.12408
2.61611, 4.21987, 3.95246
7.90094, -2.5753, 7.3314
2.26267, 5.97906, 3.09402
-4.06779, 1.44052, -5.95416
0.391093, 1.09692, -4.89488
1.64244, -1.60593, 4.04098
-1.20891, -1.83667, 2.40327
-2.58834, 0.379278, 7.33337
3.30669, -0.638791, -5.13552
-0.00422135, -0.648878, -3.32114
-1.38386, -0.269421, -5.12507
1.5242, 1.61545, -3.37308
0.448031, -0.659082, 1.05907
-2.23372, -0.621233, 6.67044
1.91782, 0.707937, 5.81572
-0.593602, -1.60673, 2.68335
-0.420916, 0.559365, 7.96295
0.421287, -0.6782, 3.21406
0.544146, 1.34326, 2.4426
-1.41747, 1.224, 2.61732
1.50395, -1.31425, 5.92864
-1.9475, 2.66411, -2.31163
0.550815, -1.62848, -2.37866
1.32694, -0.723759, 3.53063
-0.195063, 2.65264, 5.13998
0.998662, -1.52049, -1.95399
-2.77139, 1.17528, -5.49032
-0.0739281, 0.786005, -1.5292
2.23165, 2.27326, 2.9071
6.4968, 3.20875, 3.2505
-0.749855, -1.64724, 8.44852
0.798529, 4.27118, -2.78547
2.14079, 0.648981, -3.40668
-1.37827, 1.07583, 5.40323
-1.52037, 0.283651, 2.48718
-1.6658, -2.14691, 2.28021
-7.62169, -2.01713, -4.60417
-2.18383, 0.777116, -2.7325
-1.6359, 0.116318, -2.42479
3.56425, -0.617386, -4.44864
-4.25931, 1.39256, -3.22277
1.92828, -0.178529, 1.74002
0.688545, -1.63467, 2.96251
0.929757, -3.70455, 1.25019
0.446763, 2.9915, 3.98197
3.14435, -0.571538, 2.30402
-3.35131, -0.805046, 3.39371
4.66068, -0.280681, 4.28943
0.852359, 0.970776, 4.38856
1.03174, 0.417897, -2.58787
0.576578, 0.659378, 2.29219
-0.674351, 0.664239, 5.78664
-1.09813, -0.940989, -5.15948
4.33802, -0.292512, -3.93128
-1.11629, -1.5367, -2.99058
-1.48289, -0.763483, 5.85898
0.346614, 1.96336, 4.47185
-3.68743, 0.166858, 1.74884
-0.397278, 2.20967, -7.72313
5.11722, 3.87628, -2.05004
1.0847, -2.91305, -3.23525
1.69148, -0.273543, -2.86905
-2.39374, -2.03172, -5.90211
-1.5627, -1.48663, 3.35872
-2.80749, -1.77659, 5.23715
-1.85259, -2.53123, 3.64907
0.457611, 0.157536, -1.29624
-3.33901, 1.71598, 1.82711
4.53312, -2.12973, -2.63905
-1.17054, -2.61427, -2.80949
-1.82579, 3.43846, 4.85016
-1.09784, 0.49321, 0.610861
2.43102, 2.29171, 3.95866
0.976274, 3.15511, 8.20804
0.0234338, -0.524484, 2.40708
1.33096, 2.60748, 3.84708
-1.26794, -3.00059, -9.9817
2.49093, 5.66218, -5.07081
-4.36652, -1.0684, 2.4703
-1.42696, -0.0790849, 2.19512
2.12183, -0.871495, 1.69773
1.13309, 0.194671, -1.74212
0.114835, -1.96965, -6.21501
0.497527, -0.359716, 2.55326
-4.29021, 0.353829, -3.13579
-7.52291, -3.57859, 2.87098
-6.77103, 4.71971, -6.00783
-2.12731, -0.0173946, 4.07005
-0.173409, 0.0795007, -2.12134
-1.64472, -0.553384, 5.38594
0.582806, -0.188574, 4.3186
5.04015, -3.43988, 3.11816
5.59376, 7.73115, 3.37168
-6.45077, 5.22048, 3.49847
3.1561, 0.112641, 4.06824
0.850187, -1.52391, 3.02393
0.764207, 0.701864, 1.51792
0.943068, -1.49252, 5.78356
-1.47222, 2.68051, -2.04995
3.08456, -0.289405, -1.6995
-2.36806, -0.77237, 3.81143
1.53933, 1.6007, 7.0956
1.07214, -0.35552, 4.14788
0.126952, 8.41164, -9.10283
-4.04685, -1.894, 5.34854
-0.51894, 3.51722, 2.78131
-4.70635, -3.70957, -2.42358
-3.17857, -2.74402, -3.96341
-1.43527, 1.10255, -3.32588
-0.295357, -1.21044, -1.5693
-0.98258, 1.64711, 4.33777
-2.91287, 2.14378, 6.46616
-3.36034, 6.67472, 4.10021
1.59365, -5.00448, 7.65923
1.06646, -0.0251631, 2.68515
-5.43561, 2.4589, 5.81171
-0.749102, 8.90663, 3.94313
-0.433296, 0.43831, 3.47558
-1.19221, 4.86264, 4.62651
-0.974562, 3.37753, 3.10821
-5.26376, 4.3295, 2.33026
1.63654, -0.0470883, -2.43946
0.867196, 0.986224, -7.88514
0.996083, -2.27935, -4.04673
-1.76158, 0.25422, -3.81401
-1.48365, 3.17184, -2.87624
2.1292, 2.54097, 1.89706
-2.95205, -1.89802, 4.28951
-1.96234, -0.58022, 1.86526
-3.57407, -2.11752, 2.29672
-1.79615, -3.86242, 2.41078
2.67758, 3.92201, 2.27672
0.672871, -0.0119369, 1.36563
1.95012, 2.51929, 2.54443
1.79448, 2.20464, 2.26527
0.589339, 0.479252, -0.534317
2.32725, -3.26383, -5.77987
-0.0438293, 0.0793775, -3.49735
-1.89007, -0.339335, -3.0591
1.08582, 0.519809, -1.38038
1.73715, -1.79707, 1.35482
4.24183, 0.136255, 2.01036
-1.10823, -0.805235, 2.38898
-0.113372, 2.10118, 4.63561
0.357242, -0.750424, 2.89322
0.278127, -2.83797, -2.27128
-1.00593, 0.0514288, -0.917834
-1.56107, -0.395936, 5.15494
3.09811, -1.17734, -1.94109
0.633264, -0.436261, 3.26944
-3.94536, 1.85831, -3.60294
-0.180983, 0.792827, -7.99495
-2.87472, -3.27472, 4.6449
1.57117, -1.94047, -2.38291
1.62535, -1.1702, -3.57389
0.909922, -3.5662, 7.2463
2.7961, 0.153794, 4.0539
3.75744, -2.2159, 3.09585
3.78223, -1.1317, 8.84224
4.97719, -3.21479, 5.81726
-0.493222, 0.937875, -1.4211
1.04239, -1.03132, 4.97316
3.62413, -3.74614, -2.7547
-1.63944, -0.3522, 5.13156
-6.12235, -1.29137, -3.43998
-5.72796, -0.367904, -6.38068
-4.73966, 0.0771744, -2.62373
0.431356, -0.284106, -1.47109
1.45535, -1.5967, 1.13162
-0.380763, 0.414881, 2.63178
-1.65867, -1.08678, 2.43083
0.625299, -0.692628, 2.69968
1.43342, -0.85041, -1.80162
-2.61822, 0.322976, -1.98987
0.350884, 2.35534, 2.63409
-1.1943, -2.04904, -3.61802
0.764383, 1.47904, 5.0008
-1.36315, 0.0976052, -2.03709
-0.226235, -0.940333, -2.46081
2.41497, 1.57861, 11.141
2.75471, -1.58925, 2.89425
-1.06528, -0.493628, -4.11203
-1.52483, 1.57832, -1.77187
-0.628043, 0.7529, -2.74254
0.693916, 2.64746, -7.64104
3.024, -0.775029, -6.8894
0.0965457, -1.4153, -1.86587
-1.31143, 1.60245, -4.74951
-1.12049, 3.98005, -2.7744
-0.17815, 0.959117, -2.6786
-1.44399, -0.844101, -3.58334
-0.70081, 0.0640391, 2.48582
-1.42478, -3.44895, 8.59507
2.39641, -0.335691, 2.99891
-0.921351, 0.548043, 3.62756
-0.241464, -1.20809, 2.0661
-0.155547, -0.452215, -2.02165
0.61985, 0.503324, -2.81839
-2.34977, -2.44414, -6.16405
-0.673921, -0.684814, 3.08945
1.47367, 1.43399, 3.7779
2.81291, 2.36617, 1.69676
-1.27727, 3.13162, -4.69267
3.34658, 0.408788, 1.90057
-2.14015, 0.88065, -1.27849
0.0877688, 2.67728, -0.816907
-7.68792, -0.613129, 3.019
-2.78995, -1.41724, 2.74556
-2.84926, 3.71025, 5.13771
-3.32037, 4.87631, 4.29594
0.810978, -2.42955, -6.70594
-0.869499, 3.21391, -4.65421
-0.156841, 3.87324, -2.66645
3.89718, 0.0863949, -1.34654
0.294712, -4.61051, 7.22814
-1.05808, -1.79626, 3.73618
0.0860409, 0.0740573, 1.30705
2.89011, -6.18254, 4.78433
1.38702, 1.6131, 7.42456
-2.86416, -1.05904, 2.94795
4.19501, 2.51874, 3.29289
3.51893, 5.82468, 2.98792
-1.54217, -0.762967, 4.80458
-2.39938, 0.997091, 5.91068
0.649793, -0.93345, -4.40182
2.64718, -0.362489, -1.79247
-3.28338, 4.4847, -5.97707
-1.22679, 1.25321, -4.42966
-0.291417, 0.308586, -4.81074
2.38534, -0.931164, 7.0929
5.43861, -0.734315, -6.04609
-2.00709, -0.518502, 3.67922
-0.945184, -1.13117, 7.07508
-1.11396, -0.345248, -4.29441
1.26867, -7.19837, -7.67185
-1.03083, -1.05915, -2.80166
0.966196, -3.7059, 2.57521
3.02996, -0.360484, -1.87219
-1.27612, 0.388724, 2.45072
0.10356, 3.94114, 3.1857
-0.0137321, 4.87483, 7.71831
-1.45052, 0.447327, -0.294984
4.02396, -0.38567, 2.27664
0.780947, -0.820125, 2.07815
5.57409, 1.57139, 5.09154
5.56032, 3.08268, 3.34184
1.05571, -0.360616, -2.23016
-1.82604, 0.891921, 3.14916
0.153792, 3.82272, 7.19188
4.15637, -0.668942, -3.30967
-0.652629, 2.94104, 0.982805
0.884745, 1.20604, -1.66938
2.05426, 1.63582, -2.59679
1.21674, 0.516539, -4.17938
-1.39194, -0.44818, -3.00177
-3.11954, -1.96469, -4.84563
-4.15251, -2.43296, -5.33739
1.77337, 0.267261, -1.35665
-2.24372, 1.60426, 3.3077
2.04928, -3.05817, 1.72082
-1.83381, 0.823634, 4.76906
1.51125, -6.29689, 4.21255
-0.96532, 0.945453, 5.6865
1.8988, 0.155077, 4.62507
0.402452, -6.61882, -4.03075
-2.75734, -0.661243, 2.07178
-1.31367, -2.36824, 4.69962
-0.0895779, -0.664737, 2.60625
-0.842356, -0.76824, 3.08267
7.42292, -3.26413, 7.69203
1.26273, 1.25141, -2.75395
3.99538, 2.48888, 2.46535
-2.80747, -1.17351, 2.72999
-0.159803, -3.50401, 3.25416
1.45757, 2.87604, -4.40922
-0.272048, -3.17806, -1.71574
-2.11706, 2.48191, -8.19897
-0.521932, -0.954946, -4.1436
-1.43296, -0.319591, 2.09585
-2.89134, -1.37522, -3.57087
-2.23072, 2.60131, -2.8288
-2.75075, -3.12139, 4.93545
-2.04327, -5.64888, 11.0995
-1.71075, -0.388112, -6.57395
2.11521, -1.43753, 1.34527
2.54048, 1.99519, 3.47327
-3.31458, 2.2494, 2.12826
3.1041, 2.68622, 4.47623
1.11834, 5.46126, -5.6061
-2.28206, -1.9236, -5.93621
4.48778, 3.6605, -2.99863
0.834743, -4.8686, 5.53283
-2.32961, -3.28522, -2.80294
2.62383, -2.46421, 4.65925
-0.701751, -1.83856, 6.309
-0.396659, -0.12728, 5.01074
-1.65415, 3.52882, 3.49163
3.56283, 4.48348, -6.12741
-1.01029, -2.14135, -4.4835
3.14184, 3.16298, 6.9835
-0.169128, 2.67619, 4.03195
1.03152, -1.24775, -3.64699
2.71168, 0.119646, -2.85575
-0.494593, -0.503891, 3.95683
-0.430257, 0.795549, -4.76145
1.27819, -0.25422, -3.42648
-3.30997, -0.325646, 7.96616
0.621042, -3.0027, 1.15139
1.5473, -0.336115, -2.10221
-1.2538, 1.3848, 1.93074
-2.9824, -1.9732, 4.77895
-2.09449, -0.440859, 3.13004
1.76703, -2.48597, 4.61173
-4.12063, -1.66473, -5.08634
-3.59383, 0.976034, -5.39653
-3.07671, 1.91856, -15.849
-1.56057, 1.49784, 2.62625
-3.78331, -4.301, -4.51668
-5.4217, -1.7125, -5.13471
0.0477042, -3.07176, 2.66913
-0.143452, 1.68317, -3.26505
-3.15158, -1.27059, 2.18798
-1.31204, -0.329489, -4.5723
0.0547155, 0.838505, -4.90061
0.553582, -3.25369, 3.19094
5.14166, -1.59652, 12.0445
-0.30411, 0.029575, 1.62803
2.07962, -4.26812, -3.09046
2.01569, -1.9793, 1.59414
-1.30357, -3.71059, -6.28626
0.476009, -2.20804, -3.05567
0.897694, 4.06368, -4.17122
0.362543, -0.752248, -0.863927
-2.29995, -1.30522, -3.06004
-5.20104, 0.998912, 4.72192
-2.54399, -0.764753, -3.31689
-8.4587, -1.93901, -9.32766
-1.60667, -2.30136, 2.70932
1.17842, 0.527216, -1.47398
2.47767, -0.101844, 1.92054
1.13135, -6.54754, 4.17561
2.98015, -0.405731, -2.58496
-2.7154, 1.9835, -2.13732
0.356199, -2.89565, -5.26817
3.92787, -0.354144, -1.23581
-2.8864, -2.77928, 4.16519
1.0079, 1.15524, -6.08348
2.54362, -5.27187, -2.83654
4.60187, -0.79078, 2.13826
-0.883737, -3.56305, 6.77759
-2.67997, -0.190305, 3.98437
4.0793, -0.48471, 8.1015
-1.39072, -1.64252, 4.52779
3.06232, 0.783811, 4.19337
-0.58168, 2.06348, -4.54285
0.516233, 1.19032, -2.50492
-1.91964, -1.47763, -3.42478
-1.12268, 0.836307, 7.23976
-3.77574, -0.759379, 3.84045
3.07745, 1.22693, 4.68031
0.157679, -1.24024, 3.84836
-0.00233288, 3.43549, -2.81679
3.18873, -0.873128, -0.737113
-0.498898, -2.04912, 1.78459
-1.22287, -2.11215, 1.85152
-0.765418, 2.15622, 1.53187
2.88585, 0.906596, 1.05821
3.14991, -2.56982, 3.6282
-1.36181, -1.626, -5.5038
-1.9107, 3.01206, -2.73449
-2.65057, 2.71033, -3.77769
-0.463267, 3.79768, 2.25857
-3.92858, -2.09447, 8.22035
-3.22286, -1.81364, 5.09625
-0.692292, 0.663578, 4.54377
-1.52108, 0.908242, 6.91908
-1.86582, 0.805666, 2.26715
2.16361, -4.16032, -3.33927
1.04956, 2.49767, -2.8456
-1.94496, 0.416834, -2.63665
1.99211, 2.98803, 4.38288
-4.41269, 5.05614, 4.289
1.26637, -1.23281, 5.36159
0.909548, 0.252916, 2.67503
-1.37328, -1.58357, -3.37185
-0.337316, -1.9339, -7.57124
-2.58298, 2.43502, 3.48737
-0.173947, 0.982374, 2.75875
0.433905, -0.965208, 4.32618
-0.822862, 1.07002, 4.74107
0.0128575, 3.29348, 4.98156
1.80181, 0.559298, 3.48246
4.30389, -6.89364, 3.98165
0.334963, -1.37281, -6.10685
0.622321, 8.15952, 4.10192
-2.7487, 0.138442, 3.32714
-0.458381, -2.72314, -1.36537
-0.951946, 0.307515, 3.87225
-1.84502, 1.15151, 5.68364
0.11588, 0.914441, -3.16904
1.66473, -1.03964, -2.54795
5.04431, 0.377687, -3.58956
-3.74166, -2.07747, 6.28548
-0.132853, -0.547103, -1.83964
1.823, 2.51253, -3.62501
0.340928, -0.269358, 6.31167
-2.98971, -0.755187, 3.59648
-1.02862, -1.24049, 2.51863
5.15851, 1.4531, 4.80703
1.15303, -3.49892, 4.684
-3.95163, -0.0360757, 3.96546
-2.28464, 0.570063, -1.78727
2.18802, -0.16956, -1.4032
-4.29161, 8.69149, -3.53391
-0.363826, -0.326468, -6.54559
-1.89857, 0.408106, -2.9167
-1.64808, -3.59919, -2.97318
0.130872, -0.847809, -2.87649
0.215202, 2.00246, 3.16861
-4.67531, 1.97829, 2.6121
4.33642, 2.65805, 2.51533
-0.842219, -1.21128, 3.03188
1.15002, 0.526526, -5.20407
0.835972, 0.102625, -5.17218
-0.0559019, 3.42736, -9.59592
-1.5926, 0.0610022, -1.72083
-1.19919, -1.54254, -1.85534
0.525735, 0.81575, -2.57629
-1.59532, -4.25695, 3.97936
-0.334121, -0.0178411, 2.71323
1.51491, 3.38672, 1.75354
1.31629, -0.0860773, -6.41024
2.59613, -0.969977, -3.47126
7.15052, 2.28977, -1.83998
0.334764, 2.72197, -2.02085
