0.0259687, -0.0597673, -0.262631
-0.0365814, -0.465461, -0.292795
0.333234, 0.100799, -1.161
-0.314441, -0.736631, 0.32602
-1.75684, -3.34214, -0.145958
-1.54407, -0.807896, 1.29634
-0.405597, 0.973187, -0.534172
-0.106862, -0.702179, -0.196965
-0.344653, -0.0500795, 0.655871
1.74772, -0.361679, 1.39479
0.874755, -0.165733, 1.10948
0.433915, -0.702646, -1.11194
0.683942, -0.157523, -0.488213
2.09988, 0.0194694, 0.34034
0.640728, -0.317265, 0.143273
0.384073, 0.153413, 0.0775978
-0.0504818, -0.163608, -0.0957522
-0.689854, 0.242436, 0.284388
-0.00760404, 1.01228, -2.37244
-0.103942, 0.70831, -0.208756
-0.727228, -0.0644923, -0.849224
0.973449, 0.0300148, 0.939979
0.157426, 0.70432, -0.896547
0.34299, 0.188669, -0.257465
-0.921616, -0.580576, 1.0303
-0.564873, -0.064759, 0.904575
-0.0462902, 0.629308, 1.29868
-0.297786, -0.163883, -0.992173
0.435555, 1.48972, -0.439685
0.219496, -1.00713, -1.135
0.224634, 0.395366, -0.00236622
-1.31971, 0.452576, 1.71969
-0.649102, 1.58566, 0.266909
-0.962644, 1.42054, -0.696608
0.622826, -0.0205789, -0.411616
0.324822, -0.228617, 0.0817611
-0.828385, 0.375174, -0.752437
0.515833, 0.772077, 0.0548095
-2.34633, 0.488091, -1.07919
1.14518, 0.475858, -2.01081
4.33016, -0.135458, 0.4656
1.72755, 0.346084, 0.634728
0.0155091, 0.783791, -0.358169
1.36077, -0.980832, 1.55238
0.0615377, -0.119627, -0.396374
-1.61638, -0.697831, -0.236684
0.142552, -0.580709, 0.00693528
-0.038309, 0.617959, 0.0310777
-1.49915, -0.400001, 1.66662
-0.91507, -0.585876, 0.743204
0.657237, -0.332431, 0.294793
0.952296, -0.868835, -0.0691742
-1.18011, 1.46093, 0.982457
2.85724, 3.83916, 3.07844
0.0611601, -0.543043, 1.06493
1.03181, 0.274408, 0.497614
-0.652406, -1.07091, 0.539409
-0.0506909, -0.502828, 0.3101
0.046443, 0.0532465, -0.0472005
-1.08712, 0.0865848, 0.1383
-0.861885, -0.0287033, 0.0695179
-0.34826, 1.49806, 1.34689
-1.77298, 1.18879, -1.72215
1.17362, 0.860747, 1.07131
1.0855, 0.205869, 0.486712
0.542208, 0.707706, 1.81701
-0.249493, -1.2891, 0.00699432
0.614656, 1.16935, 0.655211
-0.602423, -0.393111, 0.0313023
-1.32135, -1.2059, 0.924033
-0.600136, -0.588484, -0.236398
0.962422, -0.116893, -2.03948
-0.799974, -0.469316, -0.779826
-1.13806, -0.60561, 0.382252
1.91137, -2.85727, 0.902458
0.695228, -0.662517, 2.61295
-2.87819, -0.214661, 4.72071
1.54757, -0.221013, 0.0516221
2.20301, 2.29357, 1.7478
-1.69272, -0.564331, 0.343444
-0.65905, -0.732977, -0.538706
0.446981, -0.46641, 1.11335
0.718035, -1.65907, 0.519119
0.362319, 0.787954, 0.854635
1.21125, 0.64167, -0.135619
-1.56649, -0.18566, -0.159557
-0.651259, 1.19786, 2.48856
0.0205871, -1.05399, -0.238849
0.467411, -0.111068, 1.93506
1.37706, -1.72455, 0.929733
0.877853, -0.0326144, 0.770424
-2.42957, -1.71928, -2.36795
1.95861, 0.142849, 1.78692
-0.615639, 0.886618, -0.121458
-0.68844, -1.84343, -0.790757
1.27257, -0.626923, -0.160649
0.658847, 0.393642, -1.8515
-0.641391, -1.13491, -0.144471
0.299756, 0.353631, -0.0527172
0.632971, 0.0460115, 0.0233995
-0.00517644, -0.0776123, -0.820548
-1.01264, -1.23204, 0.845762
1.20999, -0.593672, -0.80012
-0.470193, 0.074146, -1.46384
-0.847443, -0.472969, 1.51633
0.313738, 0.0299596, -0.5006
0.437447, -0.0659679, -1.23044
0.176029, -0.657974, 0.277558
1.98514, -0.0666115, -3.85327
0.545368, -0.385707, -0.395985
0.0520829, -0.126098, -0.0428063
0.359981, -1.17843, 0.767933
-0.966565, -1.14017, -0.822866
0.00715404, 0.0132841, -1.61322
-0.272588, -1.9269, -0.352537
1.93989, -0.648667, -0.836146
0.340889, 0.760858, -0.306766
0.378809, -0.951829, 0.0899435
0.404549, -1.29382, -0.0550873
-0.118204, -0.0601496, -0.367932
-0.580383, -1.90782, -1.85915
0.844262, -1.03092, -0.803245
0.632515, -0.944934, 0.0516476
0.498751, 0.295493, -0.022633
-0.926653, -0.354862, 0.0600762
3.76032, -1.00066, -1.71843
0.146947, 0.830501, -0.440419
-1.28681, 2.27901, -0.519696
-0.479484, -0.480364, -0.636945
-0.973551, 0.856379, 0.803494
0.74386, 0.957996, 1.42995
0.174412, -2.52109, 1.06992
0.993687, 0.339741, 0.51963
-0.457347, -2.60759, -1.16913
0.88475, -2.32454, 0.38611
-0.434693, -0.7794, -0.790836
1.26539, -0.731786, -1.03033
-0.759428, 0.229537, 2.81639
0.832694, 0.448641, 0.883746
-0.178562, -1.91869, -0.307804
-1.47706, -0.156338, -0.129101
-0.704941, -0.0802178, -2.13908
-0.972991, 0.486271, -0.230909
-0.439105, 0.515984, 0.926788
0.161821, 0.796599, 0.57906
2.18855, -0.664408, -2.59824
-0.387355, 0.141185, 0.158445
1.24017, -0.228175, -0.970331
-0.137203, 0.0305929, 0.424874
0.216539, 0.282061, 2.19896
0.274908, 0.643379, -0.36641
-0.245291, -0.0360581, 0.743797
2.63951, -2.35146, 0.81364
0.43776, -0.492661, -0.0586007
0.704934, -0.723915, 0.190028
-1.50934, 1.61637, 0.450297
0.0916693, -0.701608, 1.71657
0.0854357, 0.317515, 0.943249
1.02989, -1.00992, -1.01681
0.0750394, -1.45184, 1.10217
0.372154, -0.0127016, 0.478873
0.82823, 0.0132161, 0.582834
-0.228927, 0.240983, 0.0698046
-0.522422, -0.737193, -0.0359639
-1.32936, 0.344207, 0.946535
-0.27036, 1.1989, -1.04724
0.718123, -0.356171, -2.8652
-1.18181, -4.33822, 0.816163
-0.384724, -0.261395, -0.0343108
-0.28427, -0.194047, 0.977953
-0.47568, 0.104803, -0.0852971
0.095191, 0.314191, 2.36003
0.73821, -0.564099, 0.901793
-1.22571, -0.891753, -2.90066
-0.956498, 1.66477, 0.116529
0.655012, 0.754376, -0.03059
1.16324, -0.348079, 0.340894
1.12067, -0.1039, 0.492304
-0.567362, -0.288659, -0.513149
0.450326, 1.26437, 0.756908
2.34364, 0.114553, -1.10503
-0.640548, -0.168021, 0.567776
0.491382, -0.224109, -0.781083
-0.0757459, -0.873794, -0.0940897
0.0625841, -0.762383, 0.943889
0.298446, 0.447767, 0.0452794
-0.857392, 0.898295, 1.41905
-0.281781, -0.758622, -0.977591
-1.29412, 0.414563, -0.0297972
-0.30183, -0.572469, -0.313105
-1.06497, 1.27602, -0.917661
-0.727538, -0.424598, 0.830586
0.342692, 1.30207, 0.339262
0.501894, -0.404545, -0.893059
0.156173, 0.189057, 0.073372
0.883773, 0.684003, 0.94791
1.21407, 0.443373, 1.50567
0.852883, 0.488015, 0.0847367
0.472634, 0.0218899, -0.907172
-0.215842, -0.0151836, 0.268723
-0.0287501, -0.236357, -1.00059
0.219593, 0.081046, 0.265766
1.72662, 0.956797, 0.834684
4.21257, -1.74633, -0.761457
0.567515, 1.50571, 0.64416
-1.18404, -0.609394, -0.0854307
-0.393151, 0.362054, -0.200488
-0.531822, -0.0175139, -0.643146
-0.186231, 0.606925, 0.479739
-0.185858, 0.748408, -1.18107
1.26807, -0.740171, 0.109089
-3.09743, 1.70935, -0.646335
1.18926, -0.625163, 1.8956
-0.372609, -3.28282, -0.861285
-0.601485, 0.0386768, -0.060889
-0.360503, -0.458918, -1.77574
0.888209, -1.13971, 0.493439
-0.376139, -0.256005, -1.59704
-0.280049, 0.309931, 0.209682
0.758032, 2.41016, -1.07536
0.659746, 0.353013, -0.454238
-0.395827, -2.1807, -0.76293
0.778524, -1.17038, 0.503706
0.369929, -0.697582, -0.804021
-1.00575, -1.68156, -0.352046
-0.866415, 1.1414, -0.659106
-0.733029, 0.0133859, -0.0974277
-0.297504, 0.859892, 0.410623
-0.0782599, 1.83071, -1.7179
0.607807, 2.55765, 2.01612
0.572711, -0.602088, -0.814531
-0.0717848, -0.879586, -1.0389
1.33809, 0.793648, -0.572305
-2.02635, -1.40696, 0.0751017
-1.40175, 0.089315, -2.07591
0.0441662, -0.117893, -2.06588
0.0458554, -1.33285, -0.317095
-0.502696, -0.851304, -1.21891
0.290818, 0.210727, -0.559658
0.0134104, 0.136693, 0.654135
1.05106, -1.07679, 0.640359
0.535023, -0.188085, 0.874305
-0.71773, 1.56032, 1.48634
0.527329, -0.547966, 0.776962
-0.187563, 0.298686, -0.681285
-1.84669, -0.984582, 0.226005
0.144476, -0.30541, -1.22636
-0.902635, -0.0318873, 1.03559
0.845975, -1.2878, 1.08181
1.69312, -0.833472, 0.433702
-0.93322, -1.93547, -0.237809
-0.0500873, 0.942708, 0.159192
0.1767, -0.373162, -0.0567693
-0.29087, 0.776442, 0.244013
0.376686, -0.311815, 0.447574
-0.79945, 0.6749, -0.181102
-1.2235, 0.206112, 0.145179
-0.493074, 1.31895, 1.24212
-1.82795, -0.708985, 0.126696
-0.166614, 0.416444, -0.277804
-0.320395, 0.139878, 1.42541
1.12511, -0.0670648, -0.418533
-0.226083, 1.28943, 0.152277
-0.703579, 0.60095, 0.740205
1.49592, 0.573072, 0.291096
0.418888, -0.44828, -1.23335
0.583218, -0.408299, 1.3567
0.051536, 0.96434, -0.289108
0.80087, -0.377727, 0.976679
-0.414391, 1.01591, 0.260405
-0.669737, -1.65979, -0.618042
0.473586, 0.801882, -1.17922
0.583571, 0.497473, 0.786507
1.43972, 0.493725, -0.310945
-0.00785514, 0.593647, 0.554335
-0.266568, -0.467755, -0.0853768
-0.222486, 0.0840259, 0.424442
-0.469925, 0.0121212, -0.0127403
0.702933, 0.772619, -0.0127115
-0.680874, -0.300937, -0.350732
-0.207334, 0.223495, -0.0667342
0.726041, -0.358642, -0.306754
0.936755, 0.447701, -0.23316
0.220297, 1.39946, -2.16616
0.640443, 0.102878, 2.42184
0.891236, -0.260487, -1.0701
-0.454326, 0.36176, -1.55294
-0.836876, -0.783463, -0.27038
0.487119, -0.0715092, 0.0868675
-2.3199, -1.34843, 0.352801
-0.234515, 1.78003, -0.0666018
-1.62834, -0.195833, 0.0472664
-1.40575, -1.28917, 0.694419
-1.17302, 0.4511, 0.159237
0.167702, -0.50309, -0.406011
0.89345, -0.015942, 0.671514
2.78794, 0.603668, -3.73438
0.352626, 0.812542, 0.312384
0.420812, -0.320642, 0.637486
0.976401, 3.73919, -0.0329807
0.657334, -1.44079, 0.621863
2.77143, -0.33425, -0.513602
0.167928, -0.345154, 0.525765
0.54063, 1.05743, 0.183719
-0.542433, -0.661829, 1.12813
-0.148597, 0.0948653, -0.0733301
0.530232, 0.567702, -0.83426
0.931258, -0.0680753, 0.997187
-0.134245, 0.433965, 0.00167431
-1.02072, 0.465492, 1.89677
-0.638036, -0.559219, -0.230835
0.994123, 1.14898, 0.340596
-0.297441, 0.108913, 2.23679
-0.43003, -1.41043, -1.56924
-0.266096, -0.0144337, 1.09812
0.653002, 0.268819, 0.529059
-1.0316, -0.299192, -0.132257
0.474481, -0.351885, 0.284802
0.238476, -0.898545, 0.25507
0.280437, 0.262256, -0.4742
0.835531, -0.8668, -0.590328
0.404338, -0.251078, 0.0797253
-0.325758, -0.415328, 2.63533
1.21917, -4.1534, -0.898065
-0.990599, 0.992822, 0.251774
-0.395216, -0.857565, -1.34639
-0.324371, -0.524979, -1.45151
-0.00298838, -0.380123, -0.388907
-0.277939, -2.51654, 2.48989
-1.32993, -0.900752, 0.408373
-0.713639, -0.688122, 0.6819
-2.09801, -0.169279, 1.13909
-1.50754, -0.192322, 1.60791
-0.488747, -0.0783406, -0.0519863
-2.16053, 0.204004, 0.987924
0.957199, -1.43579, -0.932658
0.366767, 0.551143, 0.679639
-0.969515, -2.96907, -0.859361
0.219858, -1.2388, -0.15001
-0.185743, -0.737299, -2.07165
0.0248246, 0.665964, 0.530898
0.0188945, 1.00207, -0.602546
-0.723034, 0.21891, 1.93577
-0.589949, 0.305174, -0.481236
1.4561, 1.51595, 1.58093
-0.186671, 1.74733, -0.589376
-0.669396, 0.905425, 1.04404
-0.386963, 0.198028, -0.19061
0.612162, -1.1204, -0.0776247
-0.11315, 0.233147, -1.97218
-1.22543, 0.868663, -1.02075
-1.10503, -2.65207, 1.61703
-1.47109, -0.701779, 1.03151
0.984992, -2.25586, 0.404534
0.139197, 0.350507, -0.14078
0.876251, 1.83881, 0.259984
-0.81575, -1.16585, 1.43751
-3.41414, -1.76194, 0.853311
-1.25526, -2.7641, -0.361607
-1.62672, 0.392738, 1.25306
1.4337, -0.904934, -0.1076
-1.54684, 0.687226, -0.692009
-0.141429, 0.296579, 0.0791738
1.08176, 1.14148, -0.316805
-0.780206, 0.955905, -1.1093
0.746743, -0.629148, 0.770581
-0.744132, 0.705478, -1.5339
-0.997504, -1.54458, 1.11542
0.585687, -0.177682, 0.545435
0.380027, 1.2704, -0.398896
1.30867, 2.42455, 0.894623
-0.951662, -1.14401, 0.144842
-2.24172, -1.63248, 2.38843
-0.598446, -2.05509, 0.732965
0.357195, -0.6911, 0.225746
0.672333, 0.110992, 1.35518
0.969042, -1.63931, -2.4444
-0.505548, -0.544874, -1.04537
0.183959, -0.0825586, -0.518136
0.265384, -0.244139, -0.0570719
0.494251, -0.210256, 0.717935
-0.86227, -0.853343, 0.263371
1.08203, -0.0981325, 0.497083
-0.415938, 0.91984, -0.606972
-0.854354, -1.11702, -0.586049
-1.99381, 0.217999, 2.10835
0.579302, -1.20245, -1.33973
-1.04278, 0.456668, 0.181119
0.406559, -0.118287, -0.63103
-0.189496, -1.83078, 0.599247
-0.647219, -0.341897, -0.420965
-0.529762, 0.363007, 0.753131
0.232307, 0.155021, 0.140371
2.07328, 3.74398, 0.553872
-0.463418, 0.92433, 0.0480796
0.510998, -0.342536, -1.53608
0.92744, 1.09449, 0.714167
-0.788614, 1.81533, -0.431633
0.214476, 0.742773, -0.171125
2.18389, 0.137628, -0.223542
-1.95704, 2.49458, -0.86642
2.19946, -0.448073, -1.20735
-0.723212, 0.769721, -0.544882
-0.923988, 0.450885, 0.470312
1.52938, -0.60088, -0.634839
0.195057, -0.392395, 0.110668
-0.8301, 0.319378, 0.0253369
-0.0945152, 0.358162, -0.912361
-0.228779, -0.329059, 0.654159
-0.675619, -1.62593, -0.19032
0.735971, 0.966296, 0.753708
0.104805, -0.322114, -0.362171
-0.28916, -0.847714, 0.14515
-1.18889, -0.838608, 0.703887
-0.245239, -1.09701, 1.18463
1.27716, 3.10331, -1.37336
1.12872, -0.44325, 0.0244275
-0.344154, 2.07999, -2.29059
-0.159421, -0.706849, -0.452838
1.48345, 0.4975, -0.567629
-1.92574, 2.57346, 0.31727
-0.757659, 3.01449, 3.86866
0.368116, -0.264787, -1.07155
0.926265, 0.640544, 0.37218
-0.665209, 0.200434, -0.364192
0.0245603, 0.191742, -0.162104
0.339398, 1.65776, 0.915655
-0.232921, -0.333082, 0.340979
-0.848265, 1.34971, -0.0064378
0.898096, 2.14617, -0.487811
0.237457, 0.412288, 0.666112
0.20766, 0.355224, -0.500854
0.134377, 0.979172, -0.121813
-0.553875, 0.316275, 0.174513
-0.0315804, 0.222391, -0.337193
0.0518155, 0.894407, 0.946576
0.684054, -0.211705, 0.957714
-0.0399122, 1.63717, 0.527604
-0.951152, -0.0846393, 1.38601
1.24761, 0.39823, 2.31018
-1.87692, 0.597665, 0.646795
-0.526633, 1.84719, 0.0856154
-1.11713, -1.28161, 0.824228
-1.1987, -0.558734, -0.58343
0.694499, 1.27442, -1.31111
-0.928637, 0.365267, 0.777986
0.835948, 0.639843, 0.576648
2.4128, -0.914754, 1.22125
-0.490187, 1.89196, -0.35212
-0.0382852, -0.923928, -1.3893
-0.0924875, 3.18608, 3.98654
-1.99065, 0.832632, -0.28544
-1.83987, 0.212202, 0.373028
0.914023, -0.793681, -0.250527
-0.353382, -0.42959, -0.706855
0.537573, -0.302141, 0.366949
0.208524, 0.493301, 0.370542
-0.839072, 0.240278, 0.0927122
-2.39054, -1.38313, 1.63998
0.361586, -0.515558, -0.0864728
-0.599749, 0.482433, -0.176208
0.537361, -0.641471, 0.818795
-0.439486, -1.38695, 0.847577
-0.744608, -0.170479, -0.23564
-0.168826, -0.467855, 0.41022
1.40969, -0.329015, 0.236495
0.363077, 1.7187, -0.0757142
0.0716986, -0.0113537, 0.24838
0.523936, 0.564811, 0.0854251
-1.93311, -2.34342, 0.708684
-1.26398, -0.425375, -0.196072
0.371096, -1.16178, 1.00227
-0.763846, 0.554361, 0.795127
-0.96711, 1.23256, -1.07737
0.0233728, -0.219895, 0.33018
-0.869888, -1.64888, -3.13811
-1.60359, 1.65958, 0.759153
-0.370037, -0.0958694, 0.377887
-2.13419, -1.62906, 2.51078
-0.496305, -0.193212, -0.111971
-0.750355, 0.266475, -0.428263
0.765485, 1.01515, 0.561444
1.20638, 1.23854, 0.24609
-0.255885, -0.967913, 0.511099
-2.28788, -0.274619, 0.300156
0.613783, -0.0748814, 0.371785
-0.968698, 0.562089, 1.33095
0.0261042, 0.859293, -0.438567
-0.0473876, -0.0947891, -0.426404
-0.0933294, -0.739677, 0.126162
2.46181, -2.97707, -0.138374
1.17541, 0.946065, 0.453671
-1.27928, -0.878563, -1.4522
0.422146, 1.78421, 0.145962
0.397283, 0.347284, -0.673044
1.16281, -0.123342, -0.158464
0.399815, -0.147143, -0.0231746
0.353961, -0.554679, 0.134371
0.272814, 0.293764, 0.754032
1.44784, 1.55076, -1.30349
-0.151963, 0.152154, -1.27267
0.914611, -0.116504, -0.352397
-0.303392, -0.338323, 2.41413
0.0389562, 1.00269, 0.121113
-0.659035, -0.597963, -0.621192
-1.06467, -0.718297, 0.198693
-0.146314, -0.0292177, 0.00858301
-0.766767, -0.643262, -0.682849
1.26113, 1.45196, 0.319515
-0.123516, 0.529701, -0.0686351
-0.822717, -0.039731, -0.274704
-0.0751463, 0.646434, 0.8277
0.0218484, -2.04592, -0.233402
0.886547, -0.196661, -0.426994
-0.281341, 0.37043, 0.150006
0.729324, 1.83124, -0.753675
0.571799, 0.703432, 0.0935405
-0.630539, -0.932998, -0.190421
-0.505517, 1.62124, -0.265749
0.470697, -0.946996, -1.03546
-0.245841, 0.23771, 0.211199
-1.83654, 1.63936, 0.703097
0.619134, -0.732323, -0.855128
0.186802, -0.327977, 0.264992
0.563502, -0.133977, -1.43426
2.5173, 1.58951, -0.263162
0.0521832, -1.32547, 0.574474
0.869317, -1.51654, -1.15282
-0.332183, 1.07124, -0.424151
-0.391263, 0.776289, -0.100633
-2.1224, 1.3393, 1.14641
0.0971624, -1.75421, -1.10377
-1.33017, 1.01416, -0.405444
0.866052, 1.85026, 0.472553
-2.38215, -0.321059, -0.946446
0.13496, -0.791241, -2.6044
0.208218, -1.15297, -0.0187458
0.2688, 0.534353, 0.315962
1.32779, -0.523318, -0.0801052
1.06722, 0.560621, 1.13384
-0.857188, 0.451765, 0.323689
1.01653, 0.129173, -0.679872
0.753947, 0.947987, 1.43124
-0.548534, 0.709288, 1.1528
0.434521, -0.822825, -0.0073678
-0.803059, -1.50181, -0.141732
1.79438, -0.621748, -0.764149
-0.926806, 0.651311, -0.292742
-0.691798, -1.34343, 0.0611126
-1.62886, -0.315208, 1.86773
0.32787, 0.515119, 0.0950998
-0.11849, -0.779423, -0.104679
0.804959, 0.303976, 0.42666
-0.108683, 0.0136134, -0.0508932
0.296758, -0.219487, -0.17588
-0.302993, 0.205851, -0.0771265
-0.122135, -0.682636, 0.994624
1.0691, 0.918604, 1.67647
-0.650002, 0.285668, 0.584626
-1.43649, 0.0278414, -0.0990626
-2.76002, -1.51888, -0.999422
0.54356, -1.315, -0.655571
-1.9411, -0.573807, 0.689483
-0.0740931, 0.256303, 0.193725
1.28126, 0.561724, 0.523978
-1.04527, -2.27922, -0.119913
-1.06964, -0.142448, 0.131662
-0.796754, -0.928195, -0.6145
0.337355, -0.378342, -0.229204
-0.364834, 0.276135, -0.29166
0.36099, -1.5391, 0.661084
0.14512, -0.575979, -0.116961
0.769444, 1.067, -0.540475
0.303973, 0.347127, 0.11348
-0.89382, 1.51226, 0.147076
0.937507, -3.04148, 0.832189
0.795079, 0.379154, 0.249546
-1.44336, 1.2933, 0.251657
1.80132, 1.297, -0.101983
2.5654, -0.805879, 0.732279
0.82499, -0.861308, 0.26246
-0.673536, -0.78016, 1.40564
-0.56645, -0.173698, 0.0955612
0.937321, -0.878956, -0.319659
-0.0360503, 0.641333, 0.00704054
0.280837, 0.815654, -1.47297
1.14249, -0.335486, -0.432107
-1.3893, -1.22793, -0.19542
-0.918995, -0.186713, 0.109745
0.921933, -1.35824, -0.51193
2.97853, -0.761359, 0.567272
0.778483, 0.46206, 0.791811
-0.80759, 1.53858, -0.426894
0.0201655, 0.0879581, -0.061078
0.99531, -1.75392, 1.08998
0.0445489, -0.145769, -1.06635
0.0162107, -0.0138327, 0.206217
-0.120973, -0.0992283, 0.0075694
-0.476915, -1.31706, 1.11819
-1.23287, 0.101986, 0.400831
1.22564, -1.12901, 1.34918
0.728171, -0.928813, 1.56309
-0.543328, -3.17732, 1.99731
-0.433682, -0.50757, -1.26005
-1.48358, 0.521455, -0.87912
-0.0450704, 0.125002, -3.9014
0.0248388, -0.752163, 0.269449
-1.27156, 0.240083, -0.132792
0.758395, -1.05476, -0.0380755
-0.877511, -0.316867, -0.514037
0.704825, -0.409574, 0.990243
-0.370433, 0.48681, -0.448324
0.339949, 0.0951736, 0.358791
0.273402, 0.515555, -0.392702
0.343271, -1.03621, 0.590402
-0.311596, 0.144288, 0.414723
0.285513, -0.37231, 0.113086
2.15075, 1.96228, -0.479802
-0.958299, -0.0857813, 0.138107
0.205424, -0.446698, 0.412053
-1.00388, 0.734825, 2.79897
-1.57727, -1.20235, -0.205722
3.1294, -0.0865385, 1.34885
0.24974, 0.852203, 0.945954
-0.309714, 0.928659, 0.224972
1.13822, -0.356067, 0.430824
0.629303, -1.11894, -0.716295
0.585304, -1.12446, 0.418775
-0.517993, -0.849797, -1.07432
-1.35731, 0.931118, 0.000707059
0.452389, -0.248533, -0.221867
0.0362142, -0.394195, -0.058005
-0.657838, 2.23743, -0.919732
-0.091599, -0.456474, -0.311037
0.646768, 0.581998, -0.694652
-0.367703, 0.772317, 2.41723
-2.64183, -1.85993, 0.981738
-0.576838, -2.07445, -0.144847
-0.030424, 0.680943, 1.92911
-0.239681, 0.761334, 0.699416
0.458826, -0.635017, 0.400079
-0.502369, -0.966866, -0.116231
-0.126848, 0.764394, 0.341395
-3.00031, 0.802925, 0.173398
-0.13975, -1.25784, 1.00189
0.385675, 0.338012, 0.543007
-1.31018, 0.163252, 0.484826
0.595021, 0.0841623, -0.560986
-0.152706, 0.612885, -0.510347
1.0077, -0.522469, 1.37701
-0.45136, 0.16472, -0.265816
0.423089, 1.02148, 0.186731
0.688917, 1.20241, 0.733516
-1.26053, 1.33318, -0.113246
0.26973, 0.265579, 0.372798
0.163418, -1.65728, 0.851527
-0.162348, 1.16389, 1.99198
-0.147097, -0.0946869, -0.948091
-0.0960637, -0.298586, -0.818058
-0.117994, 0.538729, 0.632712
1.9845, -1.43633, 0.588838
1.24406, 0.0414685, 0.341145
1.35834, -0.0129789, 1.0561
-1.74446, 0.335594, 1.47104
0.362784, 0.648954, -1.06961
-0.0188217, -1.45282, 0.758276
-0.378301, 1.01507, -0.187329
-0.293839, 1.48709, 0.901739
-1.87526, -1.42169, -4.21205
0.564272, 0.910334, -1.47579
-0.988425, 0.377326, -1.36214
-0.963636, 0.0341813, 0.437348
2.10614, 1.53764, -1.29574
0.505503, -0.898854, 1.59156
-2.78753, 0.058359, -0.571419
0.17669, -0.865314, -1.86872
-0.168155, -0.116613, 1.18286
-0.254347, 0.398016, 0.361123
1.53743, -1.89738, -1.24595
-0.0641315, -0.347877, -0.122429
-0.344351, -0.647081, -0.194803
0.555152, 1.08081, -1.38861
-0.0312559, 1.16626, 0.539887
0.378276, -1.81089, -2.79667
2.87102, -0.311821, 0.585129
3.30642, -0.448677, 3.38633
0.36553, 2.94017, 0.574969
-1.27996, 0.0131054, 0.0590927
0.670026, 0.484732, 0.00523477
-0.158862, -1.28499, -0.254288
-1.05867, -1.00556, -0.382521
-1.36313, -1.23249, 0.56002
0.187191, -0.499032, 0.0061978
-0.400879, 0.0391543, 0.537672
1.34913, -0.486412, 0.0852688
0.387019, -0.740432, -0.50828
2.16494, 0.0271385, 0.157149
-1.35421, -0.92485, 2.24554
-0.828392, -0.682017, 1.26848
1.43343, 0.597065, 2.89918
0.168337, 0.550589, -0.363924
0.466353, 0.0296204, -0.761894
2.84356, 1.26952, 0.270397
0.634922, 0.654718, 0.726568
1.409, 0.452918, -0.542397
0.981224, 0.59187, -0.275176
0.123773, -0.645983, -0.573786
0.53966, 0.15334, 0.256069
0.329929, 0.343733, 0.192859
0.496426, 0.542284, -0.561957
-0.439031, 0.0152432, -0.362732
-0.768436, 0.500929, 0.545916
-0.0285967, 0.462179, 1.0815
-0.77265, -0.434834, -0.655375
-0.0956671, -0.835229, -0.463133
0.525309, 0.0188465, -0.552358
-0.296307, -1.07032, -0.0850157
0.942354, 0.0418457, 0.237321
-0.192736, 0.223015, 0.331061
-0.450805, -1.10831, 0.645787
-0.181747, 0.187414, 0.471732
0.179302, 0.69949, 0.293364
0.667779, -2.00565, 0.744519
0.21622, -0.630148, 1.86875
1.49276, -0.563389, 0.475119
-0.407803, 1.20724, -0.487161
-1.88632, 1.23944, 1.11346
0.922921, 0.60461, 0.16152
-1.16693, -0.0897076, 0.145387
0.996738, 0.0788846, -2.16897
-0.385418, -0.366476, -0.438306
1.10024, -0.568252, 0.428343
1.72157, 0.193432, 1.06784
1.3508, 0.501875, -0.173037
1.28067, -3.73586, 1.2106
-2.83566, -0.303051, 1.39768
-1.13942, -0.468571, 0.544442
0.51293, 0.77716, 0.608594
0.718156, 0.417227, 0.749623
0.564163, -0.0217102, 0.243733
-0.110794, 0.378586, -0.643899
-1.17637, -1.00864, -0.417232
-0.740379, 2.23767, -0.313526
0.837902, 1.52129, 0.981963
0.615934, -0.781167, 0.0865248
-1.43342, 0.162157, -0.0686579
-0.25053, -0.604148, -1.7323
0.100906, 0.333991, -1.14403
-0.344611, 0.973707, -0.2229
-1.09488, 2.11674, -0.663708
-2.45186, -0.791605, 1.81437
0.864447, 1.08262, 0.844383
0.0378077, 0.239861, -0.480538
0.0537493, 0.516225, 0.0283907
-0.401662, -0.365152, -1.2785
-1.21353, -0.955423, -1.94027
-2.12054, 0.713611, -1.27968
-0.00771844, -0.473102, 0.814515
0.777018, -0.602838, 0.0593384
-0.0789145, -0.04527, 0.241679
0.368364, 0.14343, -0.487186
-1.31515, 0.134969, -0.822265
0.301569, 0.0298303, 0.0875689
-0.35688, 2.50269, -0.622863
1.06974, 0.826907, -1.61329
-0.158651, 0.189442, -0.00255184
-1.08767, -1.08046, 0.0295648
-3.91415, -1.66266, 1.70776
0.63095, 0.829202, 0.362101
1.28523, -0.250099, 1.54907
1.01808, -0.869985, 0.525637
0.356761, 0.255903, -0.174967
-1.69541, -0.466285, 0.351398
-0.154676, -0.325806, -0.818213
0.109117, 0.0852121, -0.39777
-0.510755, -0.242946, -1.20363
-1.77059, -0.205995, -0.535166
-0.388798, 0.965129, 0.141274
1.5604, -0.508119, -1.2433
-1.786, 0.166675, 0.121257
-0.293786, 0.601826, -1.53748
-0.819052, -0.724741, -0.119987
-0.317248, -0.955005, 0.578787
-0.286111, 0.0944738, -0.845582
-0.0785919, -0.575098, -1.89754
0.432162, -0.479788, -0.97678
0.843758, -2.26076, -0.0733457
-0.313085, -0.317383, -0.284451
-0.181762, -0.710748, -2.15449
-1.34043, -0.158546, 1.24364
0.288502, 1.09625, 1.00767
0.917284, -1.19562, -1.67893
0.189898, -0.731456, 0.363458
0.983302, 0.0660759, -1.12493
1.20644, 0.304088, 0.712479
-1.34762, -1.02984, -0.452759
-0.20529, 0.0135885, 0.651789
0.196309, 1.97155, 0.948473
-0.361445, -0.279485, -0.115746
-0.590335, 0.419403, 0.229715
-0.468102, -0.617572, -0.908896
-0.297712, 1.08788, 2.45242
-0.305674, 1.19691, 2.49238
-0.383992, -0.372549, 0.555997
-0.986807, 0.131519, 1.31234
-0.121059, 0.187699, 0.148408
2.92228, -1.31925, 0.533549
-0.0992362, 0.436657, -0.00139787
0.458044, -0.336296, -0.216552
0.0672142, 1.64345, 2.71156
-0.246136, 0.296242, -0.232818
0.607311, 0.48961, 0.132752
-0.578945, 0.785623, -0.430912
-0.804534, 0.808593, 0.0114694
-2.6306, 0.0767703, 1.98939
-0.574165, -0.165964, 0.263046
0.497815, 0.83263, -2.7728
-5.08569, 1.49029, -2.82611
0.893595, -0.556077, -0.251729
-0.10384, -0.348783, 0.22309
1.4975, -1.33071, 0.703628
0.713994, -0.415654, -0.163956
0.104009, -1.66724, -1.12587
1.63032, -1.57586, 0.809012
-0.685202, 0.0016543, 0.900059
0.28724, -1.49971, -1.06315
-1.17676, 0.881756, -1.28897
1.7411, -1.05242, -1.40197
-0.0298562, -0.788836, -0.064764
-0.637805, 2.21595, 1.89935
0.248548, 0.679195, 0.405352
-0.0465628, -0.215255, 1.25314
0.202962, -0.626807, -0.181416
2.31374, 0.353569, 1.11346
-1.26368, 0.116272, 0.194875
0.373588, 0.00569379, 0.357199
0.928971, 0.597242, 1.45636
2.3237, 0.769292, -0.191078
-0.14295, 0.24674, -0.0478499
-0.0878202, -1.80632, 0.679342
-0.814883, -0.754337, 0.0800515
0.635476, -0.612072, 0.302479
2.03393, -1.3146, -0.990144
0.293986, 0.800025, 0.236016
0.612051, -1.60601, -0.276774
-0.710878, -0.535865, 0.608148
-0.635142, -0.624279, 0.604092
0.429807, 0.648574, 0.904066
-1.02746, 0.566885, 1.1294
1.94133, 0.00197957, 1.42174
0.839564, 0.203756, 1.02573
-0.728132, -0.0599859, -0.617073
-0.189983, 0.771166, 2.31915
-1.77202, -0.0435168, -0.160219
-0.0148277, -0.102412, 0.19117
0.737367, -0.402129, 0.118493
-0.141344, 0.045287, -0.40305
1.48264, -0.516956, -0.258435
-0.353031, -0.932314, 0.478753
0.069535, -1.01722, 0.586112
0.309631, 0.229417, -0.463612
-0.490497, -0.228177, -0.11489
-0.26055, -0.881354, 0.373485
-0.00642425, -0.62886, 0.506995
0.691006, 1.76119, 0.804981
0.330301, 0.721362, -0.837183
1.11023, 3.04722, -0.357605
-0.564435, 0.794416, 1.51391
-0.381179, -0.652269, 0.624861
-0.534425, -0.321044, -0.151238
0.221552, -0.109724, 1.27135
0.0482972, 0.892006, 0.475435
-0.0401443, 0.521562, -0.49903
-0.783694, -0.109246, -0.147427
0.504777, -0.0214175, -0.662988
0.369109, -0.523591, -0.876869
-0.558324, 0.354211, 0.792154
1.47112, 2.30332, 0.713159
-0.478345, 0.614557, -0.453847
0.777349, 0.445808, -0.230907
1.01446, -0.378443, 0.844424
0.425606, -0.915517, 0.123636
0.728533, -0.692527, 0.0748004
1.69796, -1.59707, -1.0762
-0.332909, 0.32298, 0.343635
-2.18728, 1.94391, 0.669838
0.792245, -1.26478, -0.0749878
0.509304, 0.0844151, 0.458594
1.04695, 0.755003, -1.47796
0.417104, 0.142057, 0.303726
-0.323835, -0.670897, 0.757539
-0.22208, -0.57241, 0.36872
0.146093, 0.394839, -0.69691
-0.0693003, -0.987206, -0.842533
-1.28672, -2.70852, -1.32063
-0.140052, -0.0353209, 0.0406171
1.97884, 2.62714, -0.357111
0.262521, -0.326825, -0.194835
-0.782087, 1.62058, -0.358438
1.41423, -0.418517, -2.14687
0.0564999, -0.0332761, 0.00610562
-1.18793, 0.648548, -0.337007
0.0143089, -0.219027, 0.255874
-0.184628, -0.922128, -0.0880699
-0.293636, 0.1247, 0.0276859
-0.33662, -0.300958, -0.598229
-0.379443, 0.0858215, -0.771827
1.58442, -1.80368, 0.449945
-0.283146, -0.188612, 0.202128
-1.63045, 0.799135, 0.570909
0.321034, -0.97821, -0.139731
-0.981498, 1.27152, 0.117501
0.389808, 0.816684, 2.30739
0.299924, -0.798015, -0.437902
-0.842011, 0.310188, 0.79865
-0.618246, -1.45068, -2.05906
-0.682604, -0.943181, -1.37463
0.773072, -2.43015, -0.871776
-0.684787, -0.688855, -2.25966
1.10241, -0.249271, -0.195839
1.18633, 0.723586, 0.190831
0.749352, -0.337264, -0.785317
-0.860651, 0.921014, 1.89193
0.160469, -0.876047, 0.557124
0.134324, 0.00460087, -0.629281
-1.79759, -1.64538, 0.573647
-1.40124, -1.08411, 1.63227
0.932245, 1.98048, -1.43202
-0.218744, 0.827329, -1.29549
0.0977504, -0.0348907, 1.3673
-0.138048, -1.5684, -0.5754
-0.798969, -0.894926, 1.30848
1.23232, -0.498536, -1.0976
-0.232503, -0.289078, -0.146706
-0.930795, -0.290915, -1.21062
-0.155789, -0.0499786, 0.903185
-1.01108, 1.25037, -0.480787
1.05441, -0.99686, 0.0147648
-0.378099, -0.549543, 0.220856
0.281026, 0.19101, -0.695573
-0.107812, -0.0137112, 0.186385
0.0351138, -0.602341, 1.25112
-0.0797886, 1.56343, 0.580025
1.22962, -0.703392, -0.97374
-0.557681, 1.21608, 0.908945
-0.267714, -2.02208, -1.51278
0.0312743, 1.20568, -0.417038
-0.256948, -0.423515, -0.224694
3.95233, -4.50937, 0.466636
-0.522257, -1.43934, -0.206624
0.921241, -0.725387, 0.0642329
-0.958693, 0.149111, -2.3309
0.824404, -0.924257, 0.0730799
-0.284823, 1.24162, -1.15383
-0.0495479, -0.034116, -0.14502
-0.230328, -0.133187, 0.297663
-0.502755, -0.102389, -0.713209
0.452286, 0.194241, -1.11757
0.819293, -1.13905, 0.628324
1.86212, -1.98909, 0.26306
-0.468956, -1.62688, 0.170533
-3.87615, 1.25136, 1.88197
0.410538, -0.959049, -0.318404
1.42088, 0.705672, -0.0828027
0.038523, 1.47886, -0.0351128
-0.0122228, 0.115933, -0.350809
0.322901, 0.2362, 0.328111
-0.811727, 0.177289, -0.494657
-0.485391, 0.464478, 0.392178
-0.736255, -1.4993, 0.55733
-2.01835, -1.43808, 0.17099
-0.992099, 0.12558, -0.731833
2.08387, -2.08394, 0.547191
0.219822, 0.318562, -0.312252
-1.86802, -3.90321, 2.94829
0.146152, 0.679506, 0.389874
-0.285368, 0.911328, 0.774124
1.9288, -0.85517, 0.668014
0.220869, -0.283646, 0.285845
-0.184584, -0.573216, 0.344619
-0.569182, 0.73795, 0.510463
0.662931, 1.11751, 0.207609
-2.45807, 1.06862, -1.17971
0.405882, -0.0156927, 1.05373
0.197317, 1.33096, -0.152628
0.707741, 0.5504, -0.151489
-0.0476926, 0.555121, 0.487717
2.82855, 0.46702, -2.79794
1.25039, 1.8491, -1.33693
-0.111004, 0.800463, -0.478599
-0.251842, 0.405369, -0.324055
-1.44253, 0.316981, 0.142654
0.467771, 0.0301693, 0.245862
-0.0760538, 0.521381, 0.252887
-0.135392, -1.08084, -0.0116608
-1.20221, -0.63461, 0.0535684
-0.904483, -0.433329, 0.843927
0.418269, -0.148456, 0.45549
0.866049, 0.426576, -0.980551
0.54214, -0.0106966, -0.553722
-1.65587, 0.159595, 0.115693
0.0205636, 0.537733, 0.207379
-0.919231, -0.543587, 1.92854
0.541955, -0.362521, 0.525726
-0.706018, 0.829928, -0.293363
1.26718, -0.575408, 0.656321
-0.864599, 0.346828, -1.00457
0.608709, -0.764533, -0.0483334
-0.0735136, -0.024248, 1.09053
0.367188, -0.447195, -0.168623
-0.0996852, -0.622496, 0.115173
-0.262908, -0.393433, 0.697956
-1.30272, 1.8423, -2.09677
0.75651, 0.191835, 0.335949
-0.00403872, -0.98284, 1.0216
0.412515, -0.409301, -0.080905
-3.42104, -0.221291, 1.21969
0.500583, -0.137443, 0.420223
-0.0873122, -0.635303, 0.929628
-1.45354, 1.07658, -0.587554
-0.221986, -0.0248746, -0.488927
2.20728, -0.542647, -0.360581
-0.764982, -0.186767, 0.515918
0.216508, -0.438075, 1.86503
0.929523, 1.95379, 0.33062
0.466546, -1.29196, -0.409818
0.653098, -0.522643, 0.92074
-0.202213, -0.73112, 0.579315
-0.867322, 1.23224, -1.41388
-0.544367, 0.0634255, -1.02049
0.161411, 0.461065, 0.559456
0.283615, 1.63008, -0.128344
0.00596467, -1.42446, 0.894183
0.590468, 0.355553, 1.26994
-1.70791, 0.519325, 0.690089
-1.34599, -1.16299, 0.72811
-2.00362, -2.98209, 1.72573
1.62861, -1.31451, 0.47578
0.992612, -1.06728, 0.483517
-0.0661348, 0.520419, -1.06807
-0.613433, -1.03628, 0.304923
-1.21401, -0.219241, 0.549985
0.746281, 0.23232, -0.681154
-0.617634, -0.216139, -0.434761
-0.965633, 1.66503, -0.0570418
-0.67056, 0.216296, 0.759226
-1.00038, 0.0162291, 0.371769
0.0340473, 0.114208, 0.235214
1.66265, 1.34491, -2.83311
0.482899, 0.119626, 0.795042
-0.350834, 0.599032, 0.67048
-0.134996, 0.27015, 1.60871
0.358293, 1.33568, 0.123187
1.07807, 1.89386, 0.712205
-0.188631, -0.182132, -0.413523
0.209346, -0.501433, -0.242
0.449984, -0.0285686, -0.321722
0.586804, -0.859796, 0.39893
-0.318943, 1.34686, 0.216449
-0.579064, -0.696779, -0.170368
1.79832, -0.409854, -1.76771
-0.715518, -0.0102374, 1.86464
-0.44038, 0.307773, -0.403281
-0.683741, -0.141971, 0.0937632
-1.25878, -0.158113, 0.309617
-0.293515, 0.0574038, -0.122563
0.667995, -1.83653, -2.36175
-0.645541, 1.03654, 0.435952
-0.55874, -0.350858, -0.869562
0.110165, -0.110292, 0.0103931
-0.157728, 0.233084, 0.123085
-0.436207, -0.290588, 2.06763
-0.308344, 0.281909, -0.146461
-0.296571, -0.390124, 0.367288
0.0427456, -0.524518, 0.666576
-1.25227, 0.733356, -0.324152
0.301072, -0.229455, 1.09695
-0.309314, -1.0299, -0.108606
1.1074, 1.81306, 1.43509
3.83791, 0.100377, -0.490969
-1.96774, -2.089, -1.0431
-1.74413, 1.6695, 1.50254
-0.953905, -0.598226, 0.260905
-0.263297, 0.198317, 0.639882
-2.34336, 0.249419, 1.72698
1.24658, -1.15773, 1.20464
0.247856, 2.13708, -1.60843
-0.0242129, 0.2005, 0.026229
-0.356127, 0.142244, -0.503714
-0.0835417, -1.27289, -0.276035
-0.234142, -1.24564, -0.601539
0.385316, 2.39914, 1.15454
1.3923, -0.195741, 1.49701
1.86905, -1.6341, -0.00764642
-0.471422, 1.04778, -0.00507641
-0.585934, -0.706772, -0.753899
-1.65127, 1.74172, 2.19446
-0.43546, -0.489932, 0.251965
0.00670079, -0.11293, 0.154239
-1.13709, -1.24662, -1.14949
-0.282047, 0.308608, 0.311845
-0.642349, -0.998107, -1.51489
-0.605744, -1.71506, 0.0503139
0.765945, 0.555247, -0.701007
-0.366825, 0.291096, -2.00654
2.68885, 0.740441, 0.686108
-0.886108, -0.322759, -0.849241
-1.26854, -0.97827, 0.568623
1.33822, 0.428895, 0.9424
0.335491, -0.00796594, -0.232441
0.280409, -1.41484, -0.806629
-0.263118, 0.286469, -0.632991
1.21895, 3.1955, -1.19514
-0.000932419, -0.420089, 0.2826
3.11708, -1.02217, -1.48077
1.37723, -0.429044, -1.7157
-1.02369, -0.786983, -0.538541
0.181996, 0.0323613, -0.548509
0.167095, 0.04368, -0.117399
0.320598, 0.352584, -1.41594
1.60162, 1.42769, -0.557887
-0.195921, -0.0856634, -0.800003
-0.929855, -1.31831, -1.611
0.113714, 2.00668, -0.391625
2.24465, 0.0876993, 3.07675
-0.0939579, -0.271083, -0.788008
1.81613, -0.496473, -0.788675
-0.975707, 1.79915, -1.09648
-0.580653, -0.387186, 0.367373
-0.0152507, 0.291147, -0.636218
-0.271615, -0.203992, 0.871293
-0.00193247, 0.216013, -0.782965
0.100051, -1.05451, -0.293682
2.33955, 0.314143, 2.32242
-0.424396, -0.661565, -0.424231
-0.256564, -0.358917, -0.445009
0.0167081, 0.218675, -0.50568
-0.988763, 1.0602, -0.192166
0.60837, 0.54158, -0.599012
0.154156, -0.297267, -1.58277
1.45983, 0.786846, -0.17668
-3.2237, 0.229243, 0.679632
-0.612237, 0.156558, 0.259616
0.661515, -0.990388, 0.581848
-1.0142, 0.677336, -0.984379
0.107487, 0.372429, -0.583998
-0.807499, 0.210575, 0.406661
-0.509768, -0.844084, -0.965373
-0.96645, -0.61322, 0.102741
-0.428147, -0.0338035, -0.128898
-1.05713, -0.0277378, 1.1768
-1.94399, 0.641179, 0.239568
-1.27225, -0.963327, -0.680195
-0.457876, -1.44933, 2.47095
0.367018, -0.660302, 1.01537
0.0589225, -0.298003, -1.88804
0.261867, -0.178751, -0.799372
0.210392, -0.797429, 0.622733
-1.1517, -0.0980629, -0.205176
-0.253161, 1.17116, 0.592908
-0.88027, 0.0152371, 1.43747
-0.132036, 0.0799915, 0.949553
0.0135337, -2.21452, -0.443756
-0.67229, 0.206076, 0.0821297
2.31534, 0.411513, 0.293679
1.72962, -1.0126, -0.293317
1.38232, -0.13932, 0.229542
0.0578185, 0.342948, 0.50772
1.44371, -1.3794, 0.410667
-0.345094, 1.68157, -0.592007
-1.44114, -1.79845, -0.15678
0.919298, 0.133886, -0.612933
-0.828233, -0.651732, -1.41612
-1.47839, -0.683913, 0.450346
0.215265, -2.03424, 2.22875
0.984633, -0.624768, 0.0423294
-0.846843, -0.599543, -0.458591
0.624907, 2.34937, 0.878804
-1.1403, 1.34624, -0.358936
0.86001, -0.954409, 0.169023
0.0847527, 0.698165, -1.9513
-0.479697, 0.160269, -2.26639
-0.244787, -0.545008, 0.572636
-0.0904499, -0.407215, -0.183643
2.08787, 0.887351, 0.345848
1.77762, -1.15513, 0.0208223
-0.546337, -0.145468, -0.0271125
-0.147044, -0.00541576, 0.599295
0.121772, -0.0219221, -1.52536
0.862718, -0.406871, -0.66976
0.213957, 0.268284, -0.32271
-0.975534, -0.422667, -0.72038
0.338213, 1.21803, 2.05553
0.664262, -2.04174, 0.204083
0.797359, -0.912214, -0.496122
-0.795942, -0.166611, 1.07465
-1.98556, -2.5452, -2.80171
-0.951033, 1.27433, 1.16862
-1.80456, -0.934188, -1.0978
1.19397, -0.378335, -0.192746
1.02067, 0.0237738, -0.810359
-1.06569, 1.1104, -0.200623
-0.961592, 1.05755, -0.354352
-0.0280698, 0.4793, -0.482361
-0.0690633, 0.117155, -0.044731
-0.932492, 0.544763, 0.276817
-1.57237, 0.201868, 0.815507
-0.0420554, -0.950547, -0.730261
-0.292359, 1.02872, -0.470783
-0.563042, 0.350003, -0.193076
-1.75799, 0.809669, -0.066957
0.425369, -0.489726, -0.517457
1.48577, -1.45289, -0.588036
1.18055, -0.0855776, 0.313051
0.380013, 0.476741, -0.727039
0.666899, 1.25627, -1.18342
-0.681643, -1.15987, -0.512967
2.05455, 0.296127, 1.02206
0.352661, -0.169816, -0.112644
-0.478486, -0.0433556, 0.15075
-1.53294, 0.904124, 1.23695
-0.737837, 1.51915, 0.603693
-0.259132, 0.701974, 0.544494
-0.0218145, -0.687432, -0.0279173
0.722309, 1.37248, -0.0608269
-0.171486, 0.503769, 1.00461
0.812227, 1.93441, -1.0551
-0.299438, 1.09217, -0.0999848
-0.340301, -0.725117, 0.196212
-0.105482, 0.484576, 0.0346693
1.42784, 2.13707, -0.689966
-0.119286, 0.199235, -1.06142
0.117399, 1.07093, -1.13888
1.23401, 0.767392, 0.444599
0.258331, -0.431618, -1.51204
-0.688686, 0.0593412, -0.0881083
-0.107608, -0.0121303, -0.31791
-0.132755, -0.185519, -1.02287
1.30609, -0.450736, -1.76837
0.139856, 0.373536, 0.270242
-0.224724, 0.363904, -0.346924
0.284916, 0.523193, -0.739651
-0.608773, 0.789159, 1.36841
-0.645647, 0.727713, 0.0338528
0.87038, 0.922346, -0.666644
-1.54986, 0.765114, -1.48752
-0.0861965, 0.102427, -0.849659
-0.175636, -1.12831, -1.39826
-0.106188, 0.0968664, -0.496452
-0.52835, -0.756544, 0.0441368
-0.00716629, -1.36881, 1.5446
0.0642408, 0.919332, -0.632252
0.217814, 1.07061, 0.676658
-0.193159, 0.818669, -0.358825
-0.219641, 0.116129, -1.20478
1.05633, 1.38431, -0.711989
-0.774664, 0.120096, 0.30441
-0.879953, -0.9007, -0.985253
-1.20699, -0.026598, 0.810675
-1.13595, -1.03913, -0.171422
0.639303, -1.83287, 2.88501
0.542451, 0.446842, -0.177132
-1.38793, -0.792246, 1.12545
0.360018, 1.07178, 0.792561
-0.0268609, 0.504131, -0.443863
-0.462356, -0.708632, 0.203678
0.371985, 0.137416, -0.136918
0.528655, 0.286556, -0.892065
1.30851, -0.137726, -1.46729
0.361173, -0.227028, 1.08234
1.77616, -1.19245, -0.69273
1.4899, -0.410992, 0.243407
0.647756, -0.245297, 1.0162
1.27158, 1.0161, 0.207129
-1.97082, -1.50404, -1.52461
-0.969448, -0.776973, -0.63813
-1.54509, -1.11031, 0.837945
0.16277, 0.636725, -0.201514
0.174617, 1.09471, -2.61664
0.871757, -0.0759086, -0.491275
-1.01964, 0.0698741, 0.362314
-0.0363784, 0.530033, -1.35774
4.20453, -1.17235, -2.60533
1.29337, -0.543212, -0.338306
0.649457, -1.65133, -0.487293
-0.564176, -1.45126, -2.77307
-1.42432, -0.205203, 0.296561
-0.129854, 0.8745, 0.581615
0.469583, -0.653517, -0.00856834
-0.939673, -0.654955, -0.4471
0.00178594, 0.263075, 1.24135
0.385685, 0.0861147, -0.189506
1.51256, -0.34348, 0.203855
-0.586022, -0.342807, -1.39562
0.940926, 0.00793027, -0.282077
-0.756297, -0.437294, 0.685201
-0.56983, 0.736736, 0.506172
-1.93762, -0.667731, -0.366177
-0.106072, -0.313191, 0.12664
1.56962, -1.50145, 0.645599
-1.20727, -0.203906, 1.22732
-0.280017, -0.782882, -0.567074
1.23341, -0.201024, 1.90959
-0.661246, -0.819581, -0.610816
-0.907988, -0.522108, -0.0630605
1.08643, -0.301045, 0.261288
2.92633, -0.306291, -0.225755
2.00531, -0.303768, -2.1807
0.621809, 0.215059, -0.385968
-0.768617, -0.217938, -1.60688
0.685527, 0.884798, 0.71066
-0.527252, 1.85876, -1.69588
-0.156564, 0.803926, 0.304103
-1.951, 2.2052, -0.945235
0.673666, -0.173539, -0.427102
0.86113, 0.0732613, 0.731666
1.00619, 1.11765, 0.510677
0.461712, 0.0955142, 0.150048
-0.0386434, 0.979792, 0.412124
0.369339, 0.716223, 0.376932
1.23409, 0.776859, -0.411829
0.55465, -1.31776, -0.348279
0.360103, 0.322602, 0.0779934
-0.666457, -0.313256, 0.0613623
-0.483057, 0.824995, -0.473318
0.467777, -0.348068, 0.877415
0.765463, -0.838422, 0.51383
-0.972151, 0.474713, 0.291767
-0.227498, -0.5331, 0.389844
0.0533803, -0.656841, -0.540115
0.174765, 1.18144, -1.07691
0.908535, -0.497125, -1.05755
-0.235857, 0.0806283, 0.286864
-0.642024, 0.988457, 0.650626
-1.62938, 1.10032, -0.781896
-0.260019, 0.601484, 0.520568
-0.230769, -1.45125, -0.418547
0.304325, -0.417658, 1.78168
0.850026, 0.546705, -0.766405
-0.394418, 0.21826, 0.499795
1.52672, -0.552579, -0.441334
-0.193736, 1.14902, -0.273038
-1.28326, -1.64821, -2.58507
1.14566, 0.548675, 1.48708
1.76696, 0.342992, 0.274825
0.13495, -2.32816, 2.56108
0.0373544, 0.374791, 0.0112221
0.0939351, 0.590732, -1.01338
-0.00221054, -0.3636, -0.550103
0.0870743, -0.356907, 0.0345184
-0.0263917, 0.34103, 1.37792
-0.659112, -0.402688, -0.26724
0.903017, 0.0359562, 0.321733
1.96063, 1.01875, 0.0612309
-0.815504, 0.412322, -0.709999
-1.14959, 0.912291, -0.505369
-0.130604, -0.15464, 0.175309
1.22486, -0.0534351, -1.26376
-0.276559, 0.683545, 0.292177
0.715855, -4.27081, -0.936421
-0.201459, 0.497994, -0.881513
-0.529651, -0.358067, -0.434203
-0.289285, -2.39598, 1.80291
-1.47831, 0.331602, -1.73965
-0.443807, -0.166831, -0.419107
-0.104339, -1.20252, 0.696216
-0.200491, 0.657089, 0.58771
-0.662006, -1.73236, 1.69835
-0.889943, -0.114444, -1.26259
-2.43743, -0.80443, -0.0883735
-0.172625, 0.0118706, -1.12413
0.0993596, -0.289296, 0.254478
-0.405081, 2.04481, 0.620616
-0.405822, -0.259565, -0.515812
1.63552, -1.36527, -2.03781
-0.107199, -0.44523, 0.41487
1.11255, 0.0230762, 0.045658
0.63778, -0.0989501, 0.174011
0.135728, 1.27057, 0.0184383
0.234294, 0.0711466, 0.443123
0.860928, -0.934265, 0.844981
-0.92867, -0.663275, 0.475018
0.706434, -0.769529, -0.245802
0.372018, 0.996462, -0.524383
1.18488, -0.665474, 0.814468
-0.457168, 0.213348, -0.489211
0.0168751, 0.717737, -0.347993
-0.0285438, 0.268362, 1.38346
-0.37123, -0.94873, 0.636965
-0.516259, 3.15823, -1.14352
0.349358, -0.949458, -1.39328
0.920536, 0.731941, 0.317336
0.321907, 1.01709, 1.40374
1.03317, -0.0901444, -1.14117
0.453858, 0.250192, -0.794179
1.34352, 0.32695, 2.23604
-0.495539, 0.351756, -0.136304
-0.725306, 0.532659, -0.715651
-0.347285, -1.00391, -0.393454
-0.521565, -0.130341, 1.5305
2.19981, -0.578536, -2.57459
1.14639, -0.00880293, 1.53868
0.441266, 2.40453, 0.199338
-0.597373, 0.215927, 0.223466
1.13691, 2.19426, -1.88982
0.396108, -0.0393365, 0.365587
-0.116832, 0.0598825, 0.333125
-0.370927, 0.131124, 0.653508
0.733636, -0.49876, 0.409469
-2.0117, -0.513563, -3.08241
-1.73644, 0.242587, 0.583714
-0.261636, -0.0550009, 1.27463
-0.21267, -0.623572, 0.117716
-0.319389, -0.842207, 0.604087
0.129801, -0.268112, 0.289688
-1.40765, 0.116311, 0.542822
-1.24949, 0.205547, -2.89246
0.0744551, 0.442676, -0.774883
0.20896, -0.400448, 0.167555
0.153903, 1.0988, -0.668864
1.08185, -0.359555, 0.11409
-2.27196, 1.50374, -1.39594
0.742468, -0.608694, 0.0236296
-1.07514, -0.0412394, 1.85748
0.560021, 1.3365, -0.922741
-0.866783, -0.158274, -1.92718
-1.16577, -0.280251, -0.814224
0.354014, -0.188922, 0.0905806
-0.489584, 1.58047, -3.60164
0.753043, -0.808771, -0.395547
1.04474, 0.245276, 0.0245099
-0.579446, 0.631619, -0.434196
-0.60277, -0.0932352, 0.138445
0.53752, -0.503088, -1.0073
1.34879, -1.62718, -0.300869
0.889646, -0.419021, 0.330914
0.223451, 0.576459, 0.31219
0.0270739, 0.0718493, 0.644806
1.32484, 0.168093, 1.31399
-0.480632, -0.440737, -0.463876
-0.0959232, -1.03328, 0.391665
-0.602488, 1.08351, -0.41282
-0.380652, 1.08683, -0.253722
0.85302, 0.556382, 1.34774
-1.1412, 0.737234, 0.831528
0.57494, 0.661916, -0.842713
-2.95495, -1.45324, 1.45488
-1.25711, 0.730852, 0.796168
0.0126054, -0.943112, 0.225923
0.768241, -0.0109721, 0.75967
2.39313, 1.2085, 0.214056
0.374863, -1.62708, -0.818084
0.304604, -0.692026, 0.379021
-0.590174, 0.236922, -0.586034
-0.108088, -1.74285, 0.968842
0.785407, 1.95593, -0.501661
-0.205341, 1.63999, -0.259043
0.44902, -0.109891, 0.749447
-0.118591, -0.376137, -0.784533
1.00295, 0.250781, 0.813024
1.30914, 0.00995823, 0.515974
0.109353, 0.152575, -0.77251
-0.427907, -0.583461, -1.37381
0.398816, 0.542497, -0.138523
1.26116, -1.07895, 1.24807
0.0631682, 0.0708403, -1.25283
-0.89962, -3.42832, -1.3758
0.475343, 0.65148, -3.27404
0.950535, -0.615975, 0.448485
0.102719, 1.15731, 1.45829
-0.513037, 0.941044, 1.31909
-0.0962866, -0.128716, 0.0863764
-1.52856, -1.08759, 1.35656
0.023638, -0.952531, 0.863039
-0.0654804, 0.320586, 1.80209
-0.63272, 0.0451131, -0.483948
0.480872, 1.25735, 0.417944
0.626496, 0.48568, 0.679939
0.985021, -0.841511, 2.24462
0.352738, -0.00804008, -0.0740847
0.430103, -0.154796, -0.322154
-0.60074, -0.922566, -0.527907
0.247406, 1.84969, 3.06647
-0.690121, 1.04792, -0.712733
0.545009, 0.429464, -0.111949
-0.353571, 1.20276, 1.00538
0.200607, -0.227925, -0.386822
0.808507, -0.176461, 0.904202
-3.23934, -2.57115, 1.42287
0.341754, 0.480599, 0.140211
0.0419776, 0.916047, -0.962254
0.735333, -0.315941, 1.78023
0.28639, 2.00783, 0.711005
-1.74926, -0.00178305, 1.23616
-0.303485, 1.04356, -0.351452
-1.00496, 0.825649, -0.349541
1.98316, -0.00966448, -1.93994
0.792051, -0.163605, -0.863962
0.670794, 0.764873, -0.887971
0.93087, 0.601114, -1.48125
0.393681, -0.207379, -1.17026
-2.16982, 1.63677, 0.217722
0.198192, 0.181706, -0.266326
0.211654, -0.449575, 1.70888
1.01581, -0.108798, 0.0252567
0.398396, 1.69528, -0.627307
-0.0296191, 0.0513974, -0.544967
0.327487, 1.01073, -1.03762
0.714226, -1.46211, -0.0676001
-0.194892, 1.70808, -0.470552
-2.57324, 2.48183, 0.651866
-0.123421, 1.05865, 1.26844
0.0547705, -0.359211, -0.226775
-1.3955, -1.54209, -0.443974
-0.627056, -0.478003, -0.101276
1.14162, -0.203073, 1.10395
-0.195282, -0.401369, 0.0138034
0.712957, 0.0154747, 0.182814
-1.28428, -1.01691, 1.04922
-0.312765, 2.26405, -1.37364
1.51788, 1.70406, 1.22704
-0.48767, 0.27729, 0.422857
0.185411, -0.715531, -0.66514
0.0211729, 0.797044, 0.0746181
-1.74103, -1.16296, 2.47468
2.01536, 0.0386986, -1.10764
-0.55555, -0.694507, -0.563325
0.165138, -1.10193, 0.272065
0.204457, -0.0291945, -0.185482
0.215816, 1.1433, 0.532007
0.296186, 0.251297, 0.980213
-1.61429, -1.59835, -0.46668
-1.32527, -0.633934, 2.36415
2.49248, -0.0723311, -2.30878
1.86733, -0.440776, 0.744465
1.44087, 0.870012, 0.661694
0.744147, -0.67659, -1.2531
1.15908, -1.13247, -0.931118
-0.203377, -0.287387, 0.460962
1.02547, -0.974423, 0.809283
1.66445, -0.776566, -1.24376
-0.634724, 0.0288177, 0.910482
1.09357, -0.677977, 0.0463714
-0.524254, 0.115733, 0.327135
-0.0967456, 0.336946, -0.186603
-0.385868, -0.591552, -0.0437346
0.371256, 0.699825, 0.60649
0.295992, -0.765996, -0.842527
0.567862, 0.292255, 0.930563
0.261803, 0.0726933, -0.292861
2.12955, 0.251648, -0.816025
1.94131, 1.85112, -0.601075
-0.740836, -2.28708, 1.00254
0.101059, 0.220242, 0.477735
0.358465, -0.332347, 0.59372
-0.662666, 0.220761, 0.511278
0.24313, -0.498147, -0.00469941
-0.498335, 0.44405, -0.501106
0.816242, -0.0807955, -0.47632
0.540734, -0.141142, 1.55627
-0.743555, 0.588122, 2.37221
0.648306, -0.468244, -0.731749
-0.523161, 0.174388, 0.0785186
-0.797584, 0.118729, 0.0585035
1.7591, 0.225089, 1.25687
-1.38966, -0.799316, -0.0632218
0.89071, -0.0918333, 0.116291
-1.58264, 0.480486, 0.427197
-0.0701267, 0.0448184, 0.153566
-0.976662, 0.432909, 0.0804845
-0.506258, 0.285144, -0.405928
-0.106487, -0.0634145, 0.182914
0.327205, 0.098558, -1.57806
-0.214799, 0.131496, 0.216332
1.18836, 0.989113, -1.2199
-0.317653, 0.0658083, 0.777645
1.25741, -0.373371, 0.8664
1.04843, -1.03123, 0.245899
0.470825, 0.731688, -0.0350727
-0.31823, -0.313472, -1.40346
-0.271585, -0.860869, 0.322299
2.30476, -2.23977, -1.45693
0.344218, 0.0028986, 0.600209
-0.244246, -0.960128, 0.0865348
-0.409664, 0.257591, -0.77402
0.214063, 0.521616, -0.580321
-0.609941, 0.0495919, 0.750265
0.346366, -1.38698, -0.590275
-0.296529, -0.860501, 0.306365
1.15184, 1.40718, 0.125986
0.634605, 0.257639, -1.33418
-0.134937, -0.0143962, 0.0623553
0.0853773, -0.209952, -1.22184
-0.731486, 0.795286, -1.26336
1.61269, 0.464735, -0.0926563
-0.214437, 0.366734, 0.965729
-1.18014, -0.831309, -0.675273
-0.623924, 1.29853, 0.27747
1.35233, -1.33897, -0.714427
-1.36556, 1.32329, -0.319074
1.21403, -3.59237, -2.24216
-1.10176, -0.780919, 0.957942
0.465156, 0.196618, 0.429499
0.0608036, 0.37058, -0.797963
0.740947, -1.77759, 0.82827
-0.633591, -0.646399, -0.301419
0.69041, 0.586054, 0.0962912
-0.178933, -0.0894376, -0.0359315
-1.15657, -1.1051, -0.0396178
0.0836614, 0.676829, 0.766555
-0.229724, 1.13339, 0.416147
0.0259049, 0.380009, 1.08373
2.09203, -0.234542, -1.38184
0.477772, -0.713285, 0.612693
0.406118, 0.441723, 0.408932
