1.8796, -0.531747, -0.327594
-0.0878945, -0.536197, 0.0090319
0.10275, 0.772775, -0.838526
0.69571, 0.0700776, -0.429092
0.00305804, 0.43007, -0.640336
-1.08945, -0.119225, -0.578177
-1.20171, -0.585495, 0.72821
1.67824, 0.391818, -0.371367
0.568013, -0.407892, -0.643025
-0.166836, 0.693773, -0.71969
-1.06719, 1.4685, -1.18948
0.0721417, -0.441612, -0.0500871
-0.261898, -0.49688, 0.148744
0.385579, -0.359293, -1.88233
-0.337976, -0.591356, -0.135501
-0.618553, -2.5576, 0.172018
0.154247, -0.0534989, 0.676839
0.308658, 0.284344, 0.491171
0.0483692, 1.20803, 0.94051
0.403109, -0.294771, 0.0259957
0.839476, -1.0605, 1.33913
-0.323216, 0.118085, 0.327929
0.718916, -1.59985, 0.331709
-1.00768, -1.14136, -1.12669
1.0916, -0.140889, -0.504551
1.16058, -0.397761, -0.959777
-1.14423, 0.4922, -1.64348
-0.0586133, -1.31618, 0.709837
0.00012571, 0.736347, -0.455927
0.175567, 0.218718, 0.453334
-0.171272, -0.983252, 0.30953
0.751756, 1.58057, -1.91764
1.54582, -0.631453, -1.00655
-0.29944, -0.572557, -1.17344
-1.5114, 0.51872, -0.095726
0.234604, -0.217235, -0.0952395
1.52548, -2.00197, 0.18487
0.667357, -0.160815, -0.541713
0.394073, 0.171716, -0.10677
-1.3768, -0.122926, 2.89366
-0.309583, -0.839367, -0.401336
-0.651148, -0.0161654, -1.18924
1.34931, -0.548713, 0.140294
-1.04577, 1.37422, -2.6159
0.197041, 0.836491, -0.973772
0.0657516, 0.866368, -1.15141
-0.341596, 2.01555, -0.366524
-1.32328, -0.363347, 0.597609
-0.158067, 0.562177, -0.54695
-0.145177, -0.862593, 0.439318
-0.310401, -0.808669, -1.38394
-0.313545, 0.307176, -0.0245763
-0.954742, -1.49268, -0.0723179
1.47709, 1.11161, 2.63173
1.8206, 0.631434, 0.424451
-1.24793, 0.00461123, 1.12893
0.124715, 0.0935801, -0.0496838
-0.491179, 0.281567, 0.204853
1.38425, 1.58518, -0.829048
1.0262, 1.71125, 0.0453222
-0.294778, 0.278236, 0.279313
0.486732, 0.563802, -0.0943119
-0.658338, -0.0481382, -0.453757
0.0563173, 0.327039, 0.169631
-0.682687, 0.307591, -0.727162
-1.79535, -0.784988, 5.02904
-0.307978, -0.0198334, -0.366559
-0.864557, -0.706994, 0.770799
0.0369211, 1.02193, -0.27789
1.37819, 0.440166, 0.516109
0.812234, 0.478062, -0.886197
0.382325, -0.0173474, 0.328559
0.455445, 0.583515, 1.3506
1.74899, -0.269229, -0.069411
0.906435, 0.928124, -0.488097
-0.115619, -1.70477, -0.330983
1.18443, 0.208326, -0.467094
-0.189603, -0.599818, -0.265106
-1.98409, -1.16453, -1.05213
0.603197, -0.118674, -0.342543
1.36758, 0.0544197, -1.5605
0.87505, -1.32482, -1.85354
-0.0172496, -0.255159, -0.225497
0.32874, -1.03637, -1.07941
-0.342068, 0.195908, 0.488617
-1.1408, -0.654402, -1.03823
-1.38022, 0.381151, -0.714337
0.437846, -0.223122, 1.7858
1.36617, -0.246724, 0.151653
0.308431, 0.0826234, -0.584736
0.760771, -0.862061, -0.552231
2.28816, -0.779557, 0.475951
-0.982359, -0.658689, -0.994757
0.401026, -0.918081, 0.025139
-0.584167, -0.324032, 0.437812
0.194746, 0.133187, 0.413707
1.19722, 0.84334, -0.0872819
0.0465034, 0.987612, 0.855836
-0.252568, 0.515158, -1.48415
1.03044, -0.525489, 0.492721
0.488707, -0.149367, 0.662621
-0.575698, 0.279817, -0.702694
1.49166, 2.0453, -0.465811
-1.13718, 1.32041, -0.668461
-0.486935, 0.284598, -2.95465
0.052547, 2.25253, -1.20582
-0.551311, -0.851204, -0.51877
-0.198479, -0.12775, 0.468286
0.39458, -1.963, -0.909837
-0.0336956, -0.845336, -0.318679
0.459101, -2.20576, 1.05842
-0.319265, 0.0987041, 0.189496
-1.02499, -1.56028, 1.10968
0.823652, 0.948373, -0.687861
-0.36719, 0.274056, 0.182547
-0.0515654, -0.272443, -0.846783
0.0197514, -0.723124, 1.13448
-0.312008, 0.12684, -0.00537974
-0.57464, 0.322338, 0.349061
1.27304, 0.807271, -0.00908669
0.0694466, -1.28574, -0.0922601
0.123452, 1.44687, -0.895245
0.0724095, 0.861921, 0.736864
-0.0577641, -0.177207, -0.697621
0.716912, -0.610885, -0.114178
0.494071, 0.951466, -0.828714
0.233522, 1.74188, 0.931416
1.56422, -0.280946, 1.13191
-0.842335, -0.485008, -1.73821
0.451771, 1.17447, 0.267299
0.158319, 0.0455623, 0.773082
-0.0445776, 0.49873, -0.987864
1.39853, -0.525801, 0.427316
1.16653, 1.77359, 0.00208602
2.1615, 1.65738, -0.161896
-0.0471101, 1.05373, -1.13257
0.431326, 1.16685, -0.0956546
0.0412607, -1.23942, 0.334838
-0.119034, -0.20982, -1.22557
0.00339079, -0.9166, -0.620266
0.966811, 0.856032, -0.593078
-0.885588, -0.363815, -1.01687
1.80532, 0.807968, 1.66473
-0.279289, 1.67465, 0.919074
0.189909, 0.0902345, -0.885338
-0.294067, -1.65348, 0.536763
1.31678, -0.0148391, 0.640056
0.958374, -0.304846, 0.172237
-0.145311, -0.0411676, -0.15347
-2.61218, 0.803733, 1.68082
-0.414477, 0.488914, 0.866827
0.322956, -0.326862, -0.136093
0.959961, -0.995709, -0.00940781
-0.0391491, 0.262491, -0.186189
-2.79701, -0.209222, -0.86757
0.936394, -0.136469, 0.207096
1.07045, -1.01567, 0.734194
-1.46851, -1.43159, 0.78568
-0.484469, 0.670681, 1.61555
-0.550526, -1.61768, -0.155003
1.49701, -0.880605, 0.39351
-0.327373, 0.0121782, 0.503401
0.799631, -1.70992, 0.943199
-0.0486655, 0.0186497, -1.33959
0.0529433, -0.309214, -0.0149692
0.414636, -1.65257, 0.0623848
-2.02615, -0.387942, 0.000756008
0.282169, 1.0528, 0.314425
0.0419318, -0.306085, 0.372439
0.026782, 0.0225473, 0.104315
0.700965, -2.01614, -0.391404
-0.223271, -0.755671, -0.0901447
-0.290118, 0.482601, 0.466959
0.158948, -0.10202, 0.130421
-0.517912, -1.27169, 0.657376
0.264404, -0.685653, -0.609216
0.430857, 0.239299, 1.27666
0.421331, 0.517749, 0.0031945
0.285202, -0.603699, 2.17246
-0.206355, -0.354074, -0.172564
0.86952, 0.443495, -0.240119
0.110395, -0.277894, 1.68974
1.02297, -1.5699, -0.0711128
-0.542252, 0.566031, -0.328996
-2.25594, -1.57918, 0.770101
-0.192167, 0.334019, 0.0237866
-0.91403, -0.863516, -1.43376
0.698726, 0.780656, 0.114363
0.479783, -1.17514, 0.332396
-0.719044, 0.741333, 1.14699
-0.808297, -0.612322, 1.50064
1.0324, 0.280702, 0.512032
0.149488, 2.22423, 0.494653
-0.662867, 0.508237, -0.0881017
0.00117025, 1.13635, -0.160908
-1.05788, -1.26578, -1.65
0.879069, 0.241487, 0.129264
-1.5084, 0.425643, 0.239875
-0.820185, -2.19753, 0.757427
-1.80769, 1.4524, -1.49524
-0.0892599, -0.479295, 0.8998
1.35946, -0.53133, -0.202736
-1.31603, -0.626495, -0.241664
0.209105, 0.0418422, 0.240398
-0.162991, 0.0690106, 0.265145
-0.487957, 0.490479, -0.0242335
0.751535, 0.104562, -0.0256898
0.241314, 0.680652, -0.634298
0.036219, -0.186905, 0.1445
-0.206077, -0.298441, -1.55775
-0.204175, -0.0296945, -0.382535
-0.0922785, -0.156827, -0.527888
-0.532565, -1.19998, 0.324264
-0.501506, -0.394233, -0.119939
-1.27919, -1.00882, 1.66213
0.226149, -0.779328, -0.51353
-0.232742, 1.75812, 0.752267
-1.26541, -0.122257, -0.354789
1.57601, -0.492341, -1.45883
-0.014909, -0.401659, -1.2926
0.991308, 0.931089, 0.0297293
2.09386, -0.827314, -0.515636
0.677024, -0.346748, 0.35563
0.824973, 0.340757, -0.070947
0.101569, -1.14824, -4.05587
-0.187075, -0.0991583, -0.547691
-0.734134, -0.396763, 0.90293
-0.0627789, 0.854125, 0.618189
0.380068, 0.575526, 1.13532
-0.0714095, -0.796553, -0.150074
0.618097, 0.509705, 0.863379
-0.0595123, -1.25265, -0.0627742
-0.038819, -0.0130507, 0.491226
-1.41843, 0.645808, -0.37113
0.185778, -0.0289857, 0.129839
0.301418, -0.0162792, -0.746158
-2.07302, 0.285936, 0.179877
0.25859, 0.67895, -0.658111
-0.215629, 0.844483, -0.432033
-0.0593555, -0.105646, 0.031577
0.829779, 1.39944, -0.502909
-0.801896, -0.117452, -0.18591
0.2184, -2.12521, -1.08065
1.44033, 0.482019, -0.618969
0.258022, 0.824478, -0.0428669
0.725992, 0.187998, -0.0329386
0.043535, -0.439782, 0.267715
-0.303838, -0.53601, 0.0191504
-0.784508, -0.267723, -1.51803
0.0119748, 1.02158, -0.631642
0.275767, -0.549377, -0.0405566
-0.229938, 0.0880707, 1.69743
1.26133, -0.723988, -2.68565
0.131853, -1.38362, 1.79476
1.48956, 1.29024, -1.87386
-0.0906856, -0.746068, -1.00924
-0.3599, 0.542739, 0.435863
-1.6622, -1.17951, 0.40227
-0.222687, 1.87474, -0.186103
0.0552457, -0.698209, -0.163544
-0.956681, -1.59844, 1.67636
-1.137, 0.208852, -1.27944
-1.35083, 1.41567, -0.71733
0.0201115, -0.0648772, 0.255347
1.1386, 1.02431, 0.663506
-0.759437, 0.746736, 1.37027
-0.578084, 0.201637, -0.388019
0.388258, 1.15424, 1.06483
0.721279, 0.369519, -2.59114
2.12746, 1.26802, -0.833159
-0.650788, -0.0749726, -0.706074
0.34579, 0.767503, 0.817475
1.35505, 1.02332, 2.62328
0.164662, -0.186816, 0.988316
0.515274, -0.724851, 0.760414
-0.163122, 0.0713254, -0.301694
0.811039, -0.0222059, -0.295391
-3.12134, 0.603365, 0.596375
0.524433, -1.14505, 1.80891
0.443255, -1.10872, -0.33358
1.26903, -1.19037, -0.277187
1.45421, -0.608614, -1.49413
0.111925, 0.0892413, -0.516725
-1.74218, -0.717672, -1.78106
1.02646, -0.389368, 0.00951643
-0.140576, 0.463875, -0.579138
-1.21626, 1.75195, 0.447853
0.169963, 0.702117, -1.3498
0.134526, 0.540045, 0.761805
0.937394, -0.225821, -1.34262
-0.000326456, 0.693337, 0.160711
0.816273, -1.40156, -0.447419
-0.503496, 0.237807, 0.308973
2.11426, 0.282366, -0.918727
0.15441, -0.068022, 0.631714
-0.545899, 1.77096, 0.299297
0.0666344, 0.0393092, -0.562057
0.779194, -0.0124139, 1.73355
-0.198132, -0.0783941, 0.2644
0.0513177, 1.27171, -1.12908
0.304029, 0.354054, -0.0531696
-1.00491, -0.445982, 0.959594
-0.369962, 0.41292, 1.72975
0.808535, -0.601371, 0.486734
-1.55022, 2.27814, 1.3114
-0.40535, 1.66954, 1.42802
1.3346, 0.181981, 1.99478
0.504357, -0.227515, -0.499139
-0.273447, -1.80848, -2.11083
-1.18597, 1.52282, -0.266236
-1.20877, 1.19359, -1.66355
-0.0899879, -0.941839, -1.27945
-0.012088, 0.195814, -0.640135
-1.18672, -1.29737, 0.618918
1.61163, 1.63138, -0.41217
-1.36536, -1.47136, 0.357082
-0.156754, -0.738212, 0.920326
-0.867358, -0.43121, -0.419435
-0.531051, 0.677252, -1.05874
-3.58258, -0.250456, 0.0530264
-0.300442, -0.743016, -0.553849
0.60903, 0.0123106, -0.379677
0.00826651, -1.3527, 1.03384
0.677096, -0.878649, 0.304476
1.30347, 0.458559, -0.357102
0.92628, -0.618057, -0.619928
0.318338, 1.37435, 0.115321
-1.12931, 0.609476, 0.408746
-0.431727, 0.867617, 0.262143
0.201807, 0.159424, 0.715288
0.693107, -0.140682, -2.18074
-0.653536, -1.03814, -0.77668
-0.200066, 0.097121, -0.172966
-0.319481, 0.254556, -0.348226
2.47979, 0.80753, -1.11444
-1.87411, -1.15048, -1.35372
1.23943, 0.06108, 0.360341
2.67481, -0.528039, -0.182744
0.885364, 0.895238, -0.201437
0.555481, 0.312192, 0.18971
-0.670642, -0.528582, -1.00672
-1.12016, -1.17912, 0.513997
0.0592492, -0.323895, -0.221809
1.59499, -0.473156, 0.761652
0.188667, -1.08822, -1.48965
-0.00478012, 0.719035, 0.605207
0.783854, 0.629787, -0.495244
-0.667815, 0.12608, 0.367445
0.440083, -0.663446, 1.81194
0.184402, 1.45116, -0.977653
-0.263171, -0.335141, 0.354949
0.276462, 0.431957, 0.00898988
0.467985, 0.29326, -0.431162
-0.0835729, -0.323148, -0.152171
-1.00374, -1.00991, -0.141693
0.534007, -0.041982, 0.251446
-0.122307, 0.185279, -0.0261944
-0.10192, -3.033, -1.39378
2.07059, -2.02322, 0.22238
1.15955, 1.84425, 1.16738
0.264248, 1.10735, -0.983245
-0.680504, 1.07614, -0.0900246
-0.409674, 0.19074, -0.18056
-0.993856, -0.468369, -0.711821
0.405631, -0.677285, -0.482428
-0.129327, -2.24485, 0.137747
-0.24174, 1.01294, -1.39769
-0.0608917, 0.391432, 1.6503
0.171108, -1.32198, 0.0258622
-1.57533, 0.552003, -2.44166
0.93801, -1.01454, -0.108988
0.828146, -0.508105, -1.25212
0.79021, -1.18422, 0.434146
-0.530688, 0.521824, -0.0518788
-0.73569, -0.427924, 2.37577
0.583036, -0.660361, 0.238802
0.0410523, 0.387909, 0.163908
0.32278, 0.00650115, -1.39215
-0.38587, 0.353722, 0.633682
0.243673, 0.0409951, -0.743041
0.843036, -0.71647, -0.0593832
0.0391579, 0.284319, -0.401447
0.181496, 0.0712573, 0.366825
-0.424134, -0.28208, -0.631237
-1.26845, 1.09834, -0.178276
1.85548, 0.727108, -0.573884
-0.776703, 1.61652, 0.375578
-0.651577, 0.637674, 0.462445
1.75275, 0.336768, -0.483815
0.763917, 1.01318, 0.194187
-4.14263, -1.8253, 0.861636
1.1285, 0.71091, 0.332665
-2.28168, 0.652864, -1.46708
2.03113, -0.630489, -0.507507
-2.79364, -1.06351, -1.59111
-0.217484, 0.699217, 1.7035
-0.21863, -0.567535, 0.0741597
1.17476, -0.865128, -0.117091
1.40037, 1.37857, 2.48145
-0.208394, -0.591803, -0.0107633
-0.00337004, 0.69486, 0.4426
-0.00760826, -0.196478, 0.361574
0.012538, -0.176883, 0.027817
0.983748, -1.47883, -1.25874
0.613705, -0.0193497, 1.49898
2.43706, -1.47142, 0.0302316
0.582256, -0.992053, -0.450745
-0.29124, 0.657142, 0.587018
0.29675, 0.455577, -0.220791
-0.552566, -0.927757, -1.36308
0.557804, 0.481593, -0.900586
-2.29934, -0.776172, 0.769824
0.136656, 0.828132, -3.84994
0.872652, -0.964724, 0.946205
-0.229995, 0.604379, 0.78457
-1.29515, 0.965387, 0.71089
-0.386352, 2.39592, -2.08098
-0.347004, -0.546767, 0.27403
1.85595, -0.878268, -0.51199
-1.07793, -0.702331, -1.47629
0.332983, -0.112579, -0.341872
-1.34939, 0.281006, 0.974082
-0.938795, -0.11505, -1.37396
-3.74384, 2.78516, 0.41772
0.681721, 2.5385, 1.87972
0.110749, -0.520835, -0.545825
0.928796, -0.409754, -1.10871
1.69133, -0.38668, 2.98989
-2.39699, 1.40444, 0.978714
-0.54934, 0.411077, 0.614488
-0.164374, 0.383298, 0.0993386
-0.495202, -0.709213, 1.22116
0.0889054, 0.769259, 0.25494
-0.875064, -1.63334, -0.481465
0.800529, -2.3538, -0.715326
0.901846, 0.535322, 0.177772
-2.49352, 1.58672, -0.521687
-0.342061, 0.257367, 0.103033
-0.254144, -0.527785, 1.3648
-0.53623, -1.08952, 0.0494331
0.735971, -1.39777, 0.00397303
-0.144874, -0.0895151, -0.620118
0.109127, -0.942979, -0.643978
-0.846337, -0.144404, 1.21998
1.72834, 1.90979, 1.94079
1.28554, -1.29086, 0.290582
0.48407, 0.561592, -0.600699
0.157249, -0.195381, 0.622631
-0.0678121, -1.36821, -1.58028
-0.299268, 0.127402, 0.403438
0.74641, 0.519422, 1.88325
0.797968, 0.249177, 0.173387
0.928506, 0.951285, 0.552374
-1.29287, 0.742894, 0.492875
1.91214, -0.351234, 0.804208
0.116018, -0.131968, 1.81045
0.494659, -0.721092, 0.858812
0.261937, -1.24639, -0.369956
0.0887728, -0.949217, -1.01404
0.292947, -0.200994, -0.117283
0.430548, -1.12993, 0.0340511
1.12582, -0.155024, -1.38588
-1.87699, 1.99297, 1.14536
0.0410692, -1.33267, -1.15704
-0.154007, -0.0984593, 0.0238161
0.0166326, 0.0312632, 0.112641
0.00405505, 0.333044, 0.488735
0.153884, 0.748703, 0.231848
0.903227, 0.147874, 0.828592
-0.588403, 0.952233, 0.101959
-2.25251, 0.510554, -0.195107
-1.01668, -0.247109, -0.885432
-0.19464, -0.25106, 1.06068
-0.0250675, 0.516885, 0.000440695
0.252165, 0.529216, 0.5617
0.0169869, 0.805992, 1.18898
-0.0780659, 0.861253, -0.150269
2.67689, 0.166955, 0.518893
-0.322525, 0.237503, -0.972491
-0.218661, 0.459214, -0.0204537
-1.54433, 0.166207, 0.579531
2.09477, 0.188202, 1.47195
-0.0848732, 0.1943, -0.465045
0.787571, 0.601247, -0.0725633
-1.03036, 1.197, 0.361093
-0.465183, -0.167509, -0.291777
-0.260398, -0.52614, -0.386886
-0.785453, 0.241365, -1.72307
0.812103, -0.0379652, -0.827933
0.839806, -1.20987, -1.01619
-0.236134, -1.313, 0.702743
-0.971273, -0.688983, 1.01981
-0.857753, 0.696929, 2.33849
-3.99631, 1.27736, 0.46098
-0.437921, 1.06771, 1.04827
-4.04173, 0.56301, -0.514476
0.750711, -0.956508, 0.156899
0.231144, 1.82996, 0.979918
0.699889, 0.386975, 0.503726
-0.136772, -0.0204963, -0.109136
-0.197444, 0.242486, 0.481758
-0.775566, 0.615314, 1.7613
-1.93182, -0.622591, 0.328418
-0.516304, -1.33122, 1.26152
-0.239107, 0.522794, 1.10133
2.32523, 1.45083, 1.5706
0.151524, 0.135593, 0.322677
-0.693165, -0.143938, -0.289521
0.324275, -1.83584, -1.13685
0.23905, 0.659738, -0.288744
0.610484, -0.0152169, -1.24972
-1.3525, -0.167801, 0.313488
1.73209, -0.690154, 0.258095
0.547556, 0.767066, 0.117552
0.156276, -0.813794, -1.13711
-0.169207, 0.408458, 1.25125
0.347324, 0.989356, -0.724281
-0.657768, 0.0978208, 1.31339
-0.94254, -1.10945, 0.597586
1.16205, -0.227225, -0.263242
0.977865, -0.172111, -1.84621
-0.410893, -0.224616, 0.323793
-0.535837, -1.16167, -0.673105
-0.669699, 0.666054, 0.16691
-0.309243, -0.472994, 0.70626
0.292535, 1.71011, -0.236222
0.537018, -0.311406, -0.302179
-0.613024, 0.883089, -0.20186
-0.0699656, -2.01341, 1.35957
-0.32319, -0.0121572, -0.351849
0.350692, 0.332188, -0.747644
0.364762, -1.72828, 2.31157
-0.955254, 0.734081, 0.915176
-0.197858, 0.165774, -0.627979
0.356579, -0.677034, -0.447962
-0.619813, -1.13356, 0.687307
-0.231494, 0.474242, 0.13526
1.66559, -0.916068, 2.20927
-0.239003, 1.1676, -0.0162575
1.14839, 0.00441537, 0.516204
-0.62625, -0.832262, 1.06153
0.582331, 2.20388, 0.0993688
-0.979013, -0.00925912, 0.645357
-0.79895, -2.41756, -0.373026
0.273772, 0.0927933, -1.19326
0.144121, -0.711243, 0.519938
-0.0813323, 0.0542749, 0.171867
-1.04488, 0.222189, -0.613694
-0.827631, -0.0215431, 0.19383
0.0201961, -0.658258, 0.602161
0.455242, -0.384021, 0.256325
0.200741, 0.0404493, 0.201558
-2.73902, 0.359178, 0.505277
-0.5488, 0.88423, -1.21616
0.642482, -0.543285, -1.4569
-0.304194, -0.127847, 0.990897
-0.0517284, -1.21059, -0.386594
0.490446, -0.629203, -0.603784
0.190073, -0.410018, 0.145322
-1.58261, -0.24228, -0.849161
-0.0925889, -1.18626, 0.647518
-1.25104, -0.421281, -0.747707
1.10403, 1.47001, -1.69481
0.0180843, -0.85504, 0.726536
-1.17244, -0.264888, -0.852463
0.826415, 0.0115283, 0.276445
0.240257, 0.312375, -1.38498
-0.822915, 0.883993, -1.82686
0.127368, -2.79891, -2.04554
-0.666889, 0.573664, 0.39167
-1.75595, 0.535136, -0.593041
0.362498, 0.135074, -0.109015
-1.26332, 1.45894, 0.120329
-0.946965, -0.940856, 1.85716
0.0949527, -0.282037, -0.578832
-0.912203, -0.0745055, -0.285039
-0.393497, -0.71573, 0.546324
2.5061, -0.517381, 0.618467
-0.741946, -0.321749, -0.226122
0.527365, 2.68161, 0.893645
0.0458531, -1.00329, 0.525367
0.416466, 0.483491, 0.258187
-0.834824, 0.659998, -1.80075
1.60906, 0.729626, -1.84211
-2.63024, -0.890579, 0.855742
-0.47029, -1.34749, 0.168443
0.683415, 1.08923, -1.30171
0.871337, -0.157271, -0.0449123
-0.0688542, -0.0354969, -0.553328
0.256096, -0.419039, 0.648778
0.0186517, 0.0276712, 1.38514
-0.199566, -0.541551, -0.744393
0.0726832, -0.298786, 2.36578
0.606185, 1.91627, 0.185263
1.91321, 1.70221, 0.315364
3.01764, -1.21602, 3.57622
0.19531, -0.38072, -1.36987
0.808892, 0.746971, -0.357478
-0.91403, 1.29644, -0.786659
0.100519, -0.555163, 0.487256
-0.800448, -0.747425, 1.69577
0.000996422, 0.929799, -1.22025
-1.59519, 0.774835, 0.469318
0.904588, -0.232979, 0.178727
1.2911, 0.374755, -0.863428
-0.799474, 1.31658, 1.39001
1.19439, -0.606274, 0.487786
0.755966, 2.66519, 1.74427
-0.277462, -0.495427, -0.317949
-0.144035, 0.357919, -0.853779
0.161695, 0.729564, -0.398687
-1.04412, 0.564518, 1.46648
-1.37957, 0.656863, 0.000414639
0.472269, 0.147029, 0.290383
-0.359653, 0.400134, 0.268543
0.360356, -0.153423, 0.664149
0.524677, -0.53889, -0.400406
-0.462358, 0.959772, 0.357368
0.914799, 1.1828, -2.09428
0.772451, 0.438999, -0.474208
0.229663, -0.346996, -0.459253
-2.57186, 1.21367, 2.37455
-1.11119, 0.262267, 0.524218
0.774276, -1.98172, 0.473707
-0.331179, -0.275164, 0.0357661
-0.580251, -0.30232, -0.871922
-1.50111, 0.445242, 1.63973
1.14224, -0.268315, 0.0357045
0.13434, -1.7169, -0.262733
-0.450662, -0.367267, 1.14547
0.75951, 1.84917, 0.699118
0.236831, 0.464921, -0.453647
0.792948, 0.0879784, 0.636602
1.51471, 0.845553, -0.279135
-0.0888347, 0.741853, 0.433416
0.679446, 0.379648, -0.84657
0.359108, 0.296427, -0.28249
1.41839, -0.854354, 0.226262
-0.36464, 0.481113, -0.146728
-0.502114, 0.0250816, -0.203333
-0.269953, 0.466257, -0.250206
0.837324, 0.287344, -0.616968
-0.619539, 1.68915, 0.212772
0.180714, 0.298482, -0.471923
-0.587384, -0.298774, 0.985095
-0.177932, -0.474139, 0.193325
0.0213804, -0.663249, -0.752489
1.76412, 0.135577, 1.45993
2.85196, 0.501841, -0.0955817
-0.607342, -0.336734, -2.11177
-1.65992, -0.204267, 0.983852
-0.227632, -0.494186, 1.15353
-1.2086, 0.0298977, 0.645705
0.184955, -0.6865, 1.74354
0.8311, -0.529904, -1.51618
-2.41868, 1.52537, 0.772096
1.00342, 0.375556, 1.2167
1.10138, -2.20214, 0.491891
-0.286159, 0.0448545, -0.763675
-0.681459, -1.07232, 0.197636
0.153039, -0.444954, -0.851948
-0.178931, -0.202296, -0.740337
0.149061, 0.347144, 0.663491
-0.856218, -0.357189, -0.78176
1.39186, -0.708838, -0.120032
1.48897, 0.846429, -1.05749
-0.976782, -0.446062, 0.0545829
0.456449, -0.911921, 1.18982
0.5896, 0.0354997, 0.510796
0.578689, -0.599142, 0.213481
-1.2657, 0.107756, -0.555683
-2.07333, 1.75961, -0.272736
-0.776729, 0.495835, -0.0538921
0.476475, 0.420588, -0.276658
-0.931119, 0.550433, 0.0138203
-0.250143, -0.326562, -0.14119
-0.31171, -0.189628, -0.396996
0.184833, 1.06758, -0.41055
-0.171982, -0.0317631, -0.308149
-0.733604, -0.217542, -0.35729
-1.17873, -0.16242, -0.216476
0.619973, 0.952697, 1.84395
-0.0197069, -0.0680613, 0.0178744
-0.0682954, 0.21954, -0.322394
0.0210871, 0.594622, -0.438897
0.213729, 1.49502, 0.450632
-0.390394, -1.06688, 0.457657
-0.465194, -0.328804, 0.104209
0.0176565, -0.0180911, -0.713038
-1.52777, -0.568662, -0.531017
0.33446, 0.203759, -0.998919
-0.515639, 0.456454, 1.56382
-0.249831, 0.510568, -0.732886
-0.278977, 0.022678, -1.09961
0.690983, 0.0191227, 0.669086
-0.917343, -0.11475, 0.634308
-0.0652118, -0.164011, -0.420968
-0.358034, 1.91552, -0.653527
1.71743, -0.836257, 0.0842439
0.0760488, 0.0971539, -0.569138
-0.0909567, -0.612047, -1.41824
0.599434, 1.4574, -0.1729
0.318932, -0.113021, -1.15795
0.382799, 0.352949, -0.24922
-0.463189, -1.05892, -0.389818
-0.113701, -0.767528, -0.673007
-0.302333, -0.418029, -0.311042
0.781353, 1.38122, -0.186545
0.921266, -1.52045, -0.387807
0.151603, 0.378004, 0.125391
0.403968, -0.665858, 2.17737
0.0852728, 0.00647624, 0.142822
0.178296, -0.379344, -0.779076
2.11858, 1.68686, -3.07293
-0.592863, -0.247738, 1.67445
0.247803, -1.23935, 0.213372
-0.82403, -1.37817, -2.94018
1.00744, 0.560388, 0.0385391
-0.38336, -0.793221, 0.441531
0.271388, 0.182327, 0.556947
0.350308, -0.0696536, 0.28862
0.208952, 0.347154, 0.596169
-0.621057, 0.243016, 0.598292
0.051551, 0.736969, -1.85999
0.441376, -0.165555, -0.221176
-0.785001, 0.781752, -0.793379
-1.05669, 0.764842, -0.0660051
-1.64829, -0.0663711, -1.78
-0.391064, -0.184241, -0.295268
-0.127874, 0.110803, 0.743933
-0.0984858, -1.00355, 0.487423
-3.45819, 0.536362, 0.855019
-1.37299, 0.382403, 0.498179
0.309116, 2.88356, 1.04474
0.934471, -0.0276817, 0.0570275
2.05139, -0.267546, 0.417533
-0.7023, 0.0456328, -0.42814
-0.0570724, 1.35165, -0.127042
-0.111057, 0.32612, -0.228008
-0.255054, 0.136412, 0.848366
-0.551526, -0.275128, 0.417011
0.0213504, 0.40887, -0.0733761
4.06618, 3.06575, -2.12602
-0.258275, 0.187753, -0.318576
-0.296256, -0.0429199, -0.0259733
0.082231, -0.0259576, 0.256978
0.188924, -0.01881, 0.215992
-0.139737, -0.977916, -0.317678
-0.735214, 0.570451, 0.0863492
2.17765, -0.354101, -2.97059
0.22518, 1.26673, -0.331359
-1.17817, 1.84913, 0.152041
0.276975, 0.181652, -0.540039
0.100198, -1.19055, -0.279471
1.32167, -0.815368, 0.600076
0.30805, 0.587868, -0.844313
0.221968, -0.172543, -0.197937
-0.781311, 0.39149, 0.781993
-0.936931, -0.097105, -0.356351
-0.323447, -0.195184, -0.418072
-0.0113393, 0.143222, -0.160981
0.161031, 0.797451, 0.147418
0.203558, -0.34675, -0.300844
0.583467, -0.489908, 3.44144
0.84273, 0.863009, 1.14733
1.40642, -1.51507, -0.446426
0.521823, 0.324076, -0.0057173
0.708407, 0.322173, 0.437231
1.11889, -3.41232, 0.246332
0.798939, -0.497374, 0.123395
-0.878942, -0.629904, -2.35629
0.802781, 0.183632, -1.93799
-1.81349, 3.07323, -0.0211722
-1.4465, 0.912733, 1.99925
-0.34986, 0.263995, -0.184693
0.712872, 0.800961, 3.98137
0.18455, 0.112849, 0.830979
0.554553, 2.8261, -0.758893
-0.146955, 0.955052, -0.294829
0.67435, 1.78085, 0.820128
2.03203, 0.0751365, -1.07157
1.15116, -1.22205, 1.6093
1.67818, -0.0232276, 0.493016
-2.37929, -1.52605, 1.88652
-0.0777814, -2.88267, -1.81085
0.205005, -0.0578689, 0.485912
0.511778, -1.44981, 0.661358
0.848119, 0.32392, -0.638035
-1.73176, 0.285632, -0.137686
-0.956612, 0.968704, -0.122877
0.710685, 0.0312777, 1.26095
0.273306, -0.74255, 0.548377
0.0517803, -0.36216, 0.0439698
0.139532, -0.568096, -0.139105
-0.00636081, -0.306612, 0.227039
0.563421, -1.18825, 0.471485
-0.789741, 0.607372, -1.43769
-0.548693, 0.0435489, 0.138199
0.0994934, 0.664246, -0.423553
-0.137925, 0.937378, 0.364299
-0.963386, -0.316757, -0.086725
3.27696, -0.400104, 0.749173
1.32551, 1.10324, -3.24126
1.38707, -0.0915022, -0.15692
1.02597, 1.28485, -0.518399
-2.09083, -0.0207934, 2.802
-0.352993, 0.58091, -0.806289
0.303367, 0.540408, 0.235029
-0.17794, 0.336868, -0.361614
-0.377894, -0.262417, -0.279526
-0.920516, 0.0979529, 0.108058
-0.706108, -0.475918, -0.444717
1.69059, -0.435391, -1.30065
-1.10023, -0.958756, 0.301682
-0.175072, -0.655716, 0.461163
0.503898, 0.727889, 0.683071
1.96797, 1.13345, 0.906769
-2.4244, 0.406705, 0.301117
0.334768, 0.25882, -0.315152
0.120072, 0.632782, 0.0302499
2.03509, -0.150344, 1.63945
0.754293, 0.00976004, -0.299919
-0.281323, 0.167299, 1.15497
0.725471, 0.307274, 1.0629
-0.452272, -1.712, -0.0697681
0.171328, -0.690478, 0.618813
0.553509, 0.648151, -0.268508
-0.0226548, -0.46301, -0.0516368
-1.25732, -0.146906, -0.18303
-0.456122, 0.211403, -0.433744
0.277673, 0.121503, 0.234355
0.282389, -0.84263, 0.100287
-1.49765, 0.0794483, -0.902743
-0.326307, 1.44629, -0.024133
0.861516, -0.376636, -0.523026
0.152239, 0.477669, 0.900835
-0.119568, -1.07177, 1.59837
-0.340594, 0.272769, 0.079588
-2.7058, -0.0879835, 0.0827934
-0.528468, -0.289131, 0.562819
0.0388041, -0.121149, 0.165566
-0.71862, -0.652622, 0.448297
-0.531082, -0.222801, 0.887397
0.638251, -0.168651, -0.475391
1.19738, 2.30233, -0.889578
3.06451, 0.847164, -0.882936
0.59029, -0.213681, -0.529552
-0.878175, -0.684692, -0.5585
-0.674684, 1.64962, 1.16583
-0.760528, -0.261308, -0.163409
-0.471015, 0.84808, -1.0539
-0.803105, 0.0038081, 0.851976
-0.864201, -0.26919, 0.631755
0.0905549, -0.260353, -0.0996248
-0.861703, 0.986354, -0.734287
1.40605, 0.487818, 1.1455
-1.22515, 0.0985072, -0.577673
0.415677, 0.176405, -0.934999
0.597922, -0.276751, -0.621307
-1.37308, -1.29999, 1.12249
-0.498423, 0.935247, 1.12396
-0.167517, -0.400367, -0.163903
-0.109619, 0.303433, 0.0864581
0.348604, 0.229527, -0.328039
0.300717, 0.880245, 0.183613
-0.547644, 1.08297, -0.707244
0.323894, 0.491811, -0.191021
-0.133579, -0.047717, 1.17397
0.255936, -0.287927, -0.0214289
-0.317068, 0.918932, 0.372748
0.370303, -0.932604, -0.241649
-0.724341, -0.862415, 0.227346
1.00268, 1.55041, -0.289302
0.0641488, -0.931694, 0.612173
-0.654184, -0.428252, 1.96228
-0.143243, 0.244879, 0.606755
-0.431362, -0.502026, 0.160924
0.778131, 1.31439, 0.501932
0.659716, 0.387786, -0.850844
-0.686876, 0.044903, -0.509766
0.277512, 0.992506, 0.468521
-0.79353, 1.01298, 0.532529
0.59768, 0.262928, 0.736868
0.235368, -1.86421, -1.07939
-0.191145, -0.172457, -1.11352
1.09808, -1.23504, 0.739715
0.373741, 1.08819, -1.35636
-0.436641, 2.73982, 2.55751
-1.45525, 0.0205236, 0.554192
1.39246, 0.352117, 1.19446
-0.715852, -0.352112, -1.15349
-0.0948877, -0.430435, 0.259704
1.28301, 1.15898, 0.539751
1.9515, -1.37976, 0.624629
0.536239, -0.328167, -0.497065
-0.679847, 0.546718, -0.0889979
-2.21048, 1.02648, 1.39631
1.03662, -0.715141, 1.46747
-0.704773, -0.846928, 1.14985
-0.419044, 0.660889, 0.0392171
0.619529, 0.385863, 0.287741
-0.0392302, -0.226077, 0.126547
-0.809233, -0.950839, -0.558288
-1.00471, -0.195148, -0.168871
-2.022, 0.182877, 0.575894
-1.01969, -0.24466, 0.26074
-0.0805679, -1.63916, 0.0844548
-0.0514132, -0.161491, -0.333219
-0.124303, -1.48688, -0.357571
0.239181, 0.36999, -1.17744
0.478419, 0.396118, -0.197194
1.88701, -0.653748, 0.239615
1.23043, 0.137274, -0.611858
-1.2788, -0.328316, 0.846634
1.19685, 0.877675, 0.52588
0.308502, 1.05766, -1.21115
0.637332, -0.193518, -1.25561
0.142071, -0.572992, 0.342493
2.33181, -0.272427, -0.106512
-0.783721, -0.775921, 0.0125447
0.337186, -1.05267, 0.232689
-0.118871, -0.664871, 0.742829
-0.46198, -1.06597, -0.0941648
0.0280912, -0.0161927, 0.398589
1.03872, -0.921185, 0.501175
2.17047, 0.811746, 0.801819
0.0834958, -0.319411, -0.859036
0.184896, 1.09735, 1.07958
0.385484, -1.31286, 0.506804
-0.264869, -0.130049, -1.18802
-0.912655, -0.587789, -1.91161
-1.0324, 0.300548, -0.95477
0.627141, -1.70127, -0.220491
1.71373, -1.41072, -0.468684
1.5693, -4.14127, -1.56972
1.31473, -1.11344, 1.16129
0.390116, 1.44503, 0.123151
1.0576, 0.682556, 0.0990593
-0.0950832, -0.0245948, 0.0371977
-0.767235, 1.05307, 0.109806
1.34241, 1.73569, -0.663072
-0.682086, 0.706764, 1.57764
0.800028, 0.791873, -0.972894
1.40221, 1.259, 0.289583
0.708942, 0.0489002, -0.407977
0.779365, -0.180035, 0.329121
0.585857, 0.453196, 0.489556
-1.27891, 1.21626, 0.836298
-0.180272, -0.607538, -0.316581
-0.22865, 0.181827, -0.0737504
0.0941726, 0.186694, 0.0164445
-0.0111162, -0.400677, 0.664811
0.151609, -0.368411, -0.296142
1.28954, 2.21785, 0.190179
1.02562, 0.0674231, -1.04617
0.552556, 0.059966, 0.650992
-1.16316, 0.717141, 0.318153
0.600811, -0.0601953, -0.0344047
0.784224, 0.0694555, 0.478609
-0.314866, -0.5871, 0.327914
0.327982, 0.299244, -0.359374
1.32288, 0.620692, 0.617708
-0.667163, -2.76596, -0.923265
-1.58569, 1.31263, -0.529275
-0.9629, 0.124539, -1.00582
-1.45739, 2.22261, -1.59938
-1.28331, -0.489679, -0.0990207
-0.6648, -0.493523, 0.0988993
-0.4249, 0.473083, -0.907882
0.539884, -0.121991, 1.41693
-2.72585, 1.91507, -0.153442
-0.448627, 0.0493811, 1.57846
0.0202621, 0.95369, -0.765241
-0.193878, 0.600948, -0.911223
-0.431222, 0.833377, 1.69807
-0.196762, -0.459911, -0.27552
-0.420401, -0.0479053, -0.71433
0.0809364, -0.586101, -1.94244
0.680983, 0.135649, -1.87843
2.19326, 0.178456, -2.26761
0.306283, 0.231331, 0.605346
0.487604, 0.68988, 0.0659543
-0.170126, -0.423897, 0.928528
-0.34714, 0.166364, -0.14723
0.458481, -0.762572, 0.701034
-1.26329, 1.02608, 1.12331
0.366109, -0.156679, -1.26899
0.573256, 0.269274, -0.912099
0.282229, -1.1393, 0.698575
0.180601, -0.369472, 0.171397
0.315048, 1.35364, -3.24362
0.482992, -1.03624, 1.92719
0.0822474, -0.0261478, -1.83113
0.426057, 0.787322, -0.619261
0.695249, 1.00227, -1.33175
-0.181666, 1.31105, 0.711196
2.03225, -1.96093, 0.117426
-1.21633, -0.849215, 2.76184
0.979941, 0.220828, 0.55707
-0.177272, 0.606528, -2.21472
0.380392, -0.383761, -0.138615
0.323072, -1.00496, 0.867714
0.465988, -0.781622, 0.953326
-0.254061, 0.0993327, 0.526541
1.15492, -0.0339001, -1.12154
-2.50653, -3.24913, -2.47301
-0.639923, -0.689804, -1.151
0.546666, -0.327381, 0.014601
0.0870431, 0.615372, -0.22499
1.6355, -2.01287, 1.90185
1.99099, -1.11923, 1.04505
-0.581257, 0.101854, -0.846535
-2.5548, 2.57021, 0.774735
-1.15397, 0.834317, 0.319061
-1.03492, -2.85796, 0.00806047
-0.2584, -0.653502, 0.857315
-0.171699, 0.159183, -1.0703
0.62374, 0.379452, 0.899307
0.958271, 0.888833, -0.209437
-0.194071, -0.553449, -0.252361
0.80748, 0.0914992, 0.261307
1.00004, -0.505524, 0.0993043
1.57588, -0.658835, -2.29803
-0.0745658, -0.619358, 0.24611
1.3939, -1.08994, -0.397191
-1.21077, -1.52137, 0.835884
-0.477366, -0.263269, 0.301169
-1.75811, 0.80156, -0.303593
1.9089, -2.89652, 0.0110117
-0.423894, -0.308853, 0.694745
-0.362006, -0.686808, -0.59873
1.01249, -0.288948, 0.775707
0.138313, -0.0517363, 0.0466001
-0.506296, 0.0191425, -0.609324
-0.5918, -0.355455, -0.881569
1.49068, 0.267947, -1.09342
0.0635276, -0.16287, -0.216754
-0.314567, -0.584382, -0.457193
-0.400288, -0.71776, -0.135904
0.224808, -0.76102, -0.282716
-2.29834, -0.535606, 0.652879
0.345394, -1.01458, 0.883543
0.306737, -0.308598, -0.191175
-1.31094, -2.17593, 0.00477777
0.275369, -0.769577, 1.22241
0.515688, -0.601083, 0.219722
-0.0249906, 0.234367, 0.107524
-0.279982, 0.654394, 0.208476
-0.467059, -0.371545, -0.206138
-0.0124998, -1.32707, 2.0579
-0.917269, 0.409902, 0.438233
1.65601, -1.70243, -0.166536
-0.320899, 0.103604, -0.881198
0.0678778, 0.118391, -0.648383
0.703443, 0.195879, 2.14281
-0.0111565, 0.516025, 0.534207
-0.326068, -0.180429, -0.687895
1.66283, 0.895002, 0.156082
0.469814, 0.396744, 1.32394
-0.568767, 0.566701, 0.843236
-1.51644, -0.77931, -0.217436
0.812667, 0.0690594, 0.596099
0.0614857, -0.196778, 0.618407
2.26484, 1.31189, -0.926544
0.878595, 3.5921, 1.79084
0.292527, -0.092163, 0.13913
1.67364, -1.1288, 0.0769201
-0.488126, -1.80158, 0.229417
-1.62633, 2.34922, 0.787406
0.480544, -1.36284, -0.41243
0.0718013, -0.25869, -0.523912
-1.94785, -1.67668, 1.0796
-0.381067, -1.10821, 0.9797
-0.144625, -0.434543, -0.359877
-0.281343, 0.188245, -1.02407
-0.57853, -1.11286, -0.390352
1.10435, 0.466514, -0.0205212
1.44925, -0.938943, 0.259932
0.0923176, -0.720907, 0.181477
-1.04554, -1.22284, -0.975911
-1.86884, 0.930018, 0.613016
-0.562693, 2.05325, -2.16757
-0.182753, -0.181779, -0.141104
-0.112207, -3.07465, 0.296927
0.68705, 0.616524, 0.185498
-0.366082, -0.800559, -2.49093
1.70094, 0.963649, -1.33533
0.510617, -0.138787, 1.58039
0.906904, 0.0508961, 1.068
0.514338, -0.367681, -0.0759
0.0243007, -0.381213, -0.627584
0.877777, 0.0744004, 0.342743
0.0316829, -1.06532, 0.452347
0.593159, -0.358266, 0.674032
0.00667091, 0.405483, -0.271951
-0.284235, -0.361273, 0.168865
-0.847282, -0.356862, -0.332819
0.461863, -0.721713, 1.30167
-0.712302, 0.823613, -0.724813
0.303144, 0.642083, -0.177592
-1.366, -0.980318, 0.835753
2.59076, -1.35391, 1.80617
-1.26413, 0.742934, 1.42347
0.700066, 0.324417, -0.0904594
0.20765, 0.00615289, 0.611836
-0.235796, 0.650235, -1.8368
-0.302066, -0.600257, -0.132263
-1.67553, -0.633025, 1.50901
-0.323389, 0.124453, -0.142907
-1.23946, -1.07475, 0.666488
-1.29332, -0.997448, 1.24897
-0.397495, -1.47825, -0.13472
0.499912, 0.250038, -0.981509
0.314129, -0.260022, -0.03547
0.17147, -0.29638, -0.353791
0.247922, -0.461962, 0.591288
0.063355, -0.0512315, -0.11878
0.0866905, -0.335338, -0.937377
0.698272, -0.18745, -0.238813
-0.247694, 2.13017, -0.167797
0.597884, 1.44336, 0.710578
0.0441954, 0.137225, 0.240616
-1.26211, 0.390302, 1.09726
0.330594, -0.420382, -0.234808
0.294631, -0.492945, -0.599967
-1.76249, -0.98782, -1.2728
-0.788695, -1.24731, -1.10275
-0.38262, 0.914146, 0.631186
-0.664711, 0.172449, 0.0221285
1.00729, 0.313393, -0.36436
-1.87524, -0.680987, 1.19805
1.01319, 0.310251, -0.142899
0.354585, 1.53966, -0.260015
1.16606, 0.819529, -1.31161
0.274485, -0.988443, 0.984008
-1.35032, 0.171325, 0.153312
-2.06241, 0.276351, 0.645502
0.108519, -0.299983, -0.706441
-0.07529, -0.032629, 0.874063
0.859511, 0.877652, 1.3483
0.0549825, 0.0014004, 0.440604
-0.132283, 0.968753, 0.414516
1.08024, 0.18554, -0.642214
0.22096, -0.380756, -0.298613
-0.300018, -3.26076, 1.15793
-0.172735, -0.216829, -0.121059
-0.632929, -0.630526, -0.991343
-1.22852, -1.54859, 0.572988
1.32704, -2.00416, -1.40758
0.0996656, -0.62424, -1.11572
0.288316, 0.364306, 0.546344
-4.67696, -1.95825, 4.22581
-1.20216, -0.314375, 0.727257
2.22885, -1.19312, -0.605521
-0.632967, 0.182273, 0.331317
1.26309, -0.0870964, -1.49988
0.0620227, -0.549918, -0.104441
-0.0483164, 0.23421, 1.15095
-0.326222, 0.0303201, -0.783652
-0.555152, 2.10734, 0.374171
0.128214, -0.399968, -0.00842312
-1.70582, 0.277115, -2.19102
-1.60454, -0.615519, 1.80478
1.12208, -0.149514, -0.155292
-0.102107, -0.393385, 0.416647
-1.14636, -0.485885, -0.588159
-0.781897, -0.43792, 0.0849722
0.133133, -0.428826, -0.406565
-0.98689, -1.06321, -0.17531
0.201534, 0.325337, -0.769021
-0.0257019, -0.544956, 0.185725
0.622343, -0.59643, -0.370923
0.327614, 0.20138, -0.958329
0.371586, 2.36676, -0.70478
-0.589006, 0.853749, 0.77649
0.333649, -1.31289, -0.690246
0.447122, 1.29141, 0.317159
-1.95949, -0.365993, -1.01007
-0.0653843, -1.08306, -0.774639
-0.134545, -0.594002, 0.504545
-0.506815, -0.534317, -0.13399
-0.309764, 0.341508, -0.657182
-0.0484868, -0.414737, -0.683748
-0.560172, -1.20619, 0.0338283
1.01752, 0.16946, -2.31945
1.02857, 1.7637, 0.705795
0.0577716, -0.178399, 0.223974
-0.218434, 0.170376, -0.392465
-0.00152794, 0.0871831, -5.04891
0.369827, -0.182397, -0.162973
-2.21673, 0.270474, -0.0567147
-0.865834, 0.261806, 4.04537
0.119453, 1.15238, -0.256437
0.109921, 0.088222, 0.235951
0.41044, 0.750908, 0.0632398
0.408613, -0.135271, -1.11877
-1.43838, 0.339982, -2.12892
0.0222968, -0.0876804, -0.656903
1.12256, -0.0277142, 0.902132
-1.32199, -1.32609, 1.28067
-0.201426, -0.725377, -0.248687
-1.08397, 0.611503, -0.247294
0.0750737, -2.69021, -0.399462
0.673096, -1.28579, -0.132238
-1.8758, -0.723828, -1.44212
-0.602394, 0.689726, -1.69133
-2.07503, -0.816964, 1.17956
-0.148925, 0.526749, -0.15648
1.55209, -0.701579, 0.32874
0.610582, 0.47212, -0.842132
-0.324013, -0.146926, -0.164146
0.412773, -1.33641, 0.934051
-0.034756, -0.808831, -1.78866
0.444924, 0.391137, -1.54785
-0.909084, 0.753326, 0.444077
1.14519, -1.013, 0.402273
-0.482289, -0.800946, -0.186078
2.06806, -0.713044, 0.471803
0.435586, -0.172143, 1.02264
0.0660115, -1.99842, -0.635804
-0.656632, 1.43103, 1.20579
1.15369, 0.413086, 0.64701
-0.994967, 0.05967, -0.445982
1.09258, -0.295064, 0.361299
-0.315788, -0.597984, 0.878205
-0.739638, 0.354153, -0.859467
0.372707, 0.820641, -0.284863
0.374869, 1.13396, 1.29044
0.942059, 0.520628, -1.04936
-0.893532, 0.638828, -0.293793
-1.33028, -0.756877, -0.410066
-1.48845, 0.371777, 0.186275
1.86075, 0.524744, 1.83161
0.4758, 0.663528, -0.918405
0.423174, -0.326505, -0.339015
-0.15203, -0.292745, -1.86194
-1.75222, 1.61531, -0.72455
-0.26989, -0.844378, -0.182078
-0.789271, -1.59996, -1.18811
0.314773, 0.231805, -0.104465
-0.479751, -0.374793, -0.84546
0.829081, -1.92991, -0.27806
2.01177, 3.56399, 1.30537
1.29559, -0.705962, 1.15215
0.239367, 1.72919, 0.561431
0.718169, 1.82535, -0.766429
0.546017, -0.669618, 0.593782
0.22904, -1.44671, -1.27287
0.0176099, 1.33734, 1.16849
1.33326, 0.612229, 0.465208
2.01643, -1.79586, -1.25663
-0.977252, -1.79583, 1.01806
-0.183843, -0.73276, 0.497636
-0.602406, -0.967318, -0.656
0.138181, 0.837929, -1.76231
0.217935, 0.252267, -0.424616
-0.762669, 1.59104, -0.0342922
-0.96573, 0.848568, 2.21418
1.56775, -2.33967, -1.01459
-0.830062, -0.0153114, -0.335032
1.30999, 0.40522, -0.667051
-1.6275, 0.811861, 0.932926
0.531143, 0.665862, -1.82787
0.345939, 0.212315, 0.0837336
0.230698, 0.488055, -0.356061
-0.218288, 0.23208, -0.149103
-0.152931, 0.259514, 0.0949681
0.0295114, -0.368334, 0.35156
0.203065, 0.241628, -0.645644
0.000840322, 1.05956, 0.435346
0.855999, 0.423419, -0.657441
-1.1097, 1.47464, 0.251355
0.610618, 0.289986, 1.70358
-1.12188, 0.0879686, -0.2711
0.321591, -1.45302, -0.56488
1.38237, -0.256011, 0.403116
0.0718262, -0.468422, 0.510215
-0.0990735, -0.320437, 0.216437
-0.629419, -0.0382501, -0.0555394
-0.395545, 0.280842, 2.21781
-0.0901772, 0.345473, 0.337238
0.0845576, -1.16304, 0.0669798
0.105574, 0.489258, 1.24276
-0.79388, -0.909339, -1.10176
-0.147299, -0.432117, 0.432333
1.52549, -0.974172, -1.1987
-0.119416, -0.733744, 0.618739
-0.126358, 0.235094, 0.278566
-0.203615, -1.02621, 0.679741
0.617965, -0.163178, -1.23524
-0.47423, -0.849873, -0.226083
1.44789, 0.256181, 0.523886
-0.334021, 0.156314, 0.100728
0.952082, 0.00496743, -0.713015
-1.39671, 3.46021, 1.25113
-1.48391, 3.01023, 2.39531
-2.08357, -1.50249, -1.21024
0.417825, 0.50962, -0.0739903
-0.23777, -0.24797, 0.603415
-1.49055, -1.19627, -0.626657
0.458443, 0.604206, -0.0208807
-0.908825, -1.07252, -0.736903
-1.82541, -0.0525335, -0.945009
0.0514766, 0.853735, -0.27802
0.339948, -0.128713, 0.366111
-1.34167, 0.175419, -1.40906
1.33395, -1.46506, 0.285076
0.103975, 0.530126, -0.0834679
0.56915, -0.191147, -1.09796
0.125743, 0.408845, -0.58017
0.718887, 0.18062, 0.548985
0.512192, 0.372457, -0.730597
0.0764857, -0.0161798, 0.505777
1.81506, 0.0655017, -2.03602
0.74902, -0.228427, -1.73119
-0.680279, 0.199715, 0.525974
-0.212924, 1.99187, 2.10374
0.650651, 0.193895, -0.123037
0.551057, -0.00459032, -0.250666
-0.907122, 1.30409, 4.36121
-0.0687313, -0.534055, -0.0834815
1.0214, 0.441555, 0.223157
0.229895, -0.334919, 0.123312
0.552342, -0.67744, -0.360812
0.601421, -0.195355, 0.201939
0.170976, 0.730222, -0.316068
-1.23348, -0.394062, -0.700994
-0.435264, 0.0574891, -0.109948
1.54879, 0.075545, 0.0769035
0.388465, -0.234674, -0.133365
-0.801799, 1.53994, -0.818089
0.688573, -0.628161, -1.96949
-1.05333, 0.910129, -1.02245
-0.38096, 0.356286, -0.0178796
0.347727, 0.0119284, 0.325292
-0.999991, 0.744712, 0.549868
0.208499, 0.138397, 0.326592
0.612982, -0.131194, -0.714267
-1.6403, -1.4259, -0.655767
0.779795, 1.61883, 0.792099
0.227175, -0.0125298, 0.199204
-0.196962, -0.43492, -0.50605
-0.243123, -1.19699, 0.425098
-1.26709, 1.25663, -0.432363
-1.32445, 1.49313, 0.792635
1.29212, 0.461259, 1.0862
-3.34773, 1.21304, -0.426827
-0.243878, -0.106636, -0.655089
0.297551, 0.12898, 0.35649
0.221418, -0.515033, 0.576955
-0.813309, 0.53668, 0.560063
0.215089, -0.281834, 1.12131
-0.0770662, -0.575271, -0.192104
-0.0569541, -0.10693, 0.624494
0.0183886, -0.142281, 0.0845108
1.13918, -0.162343, -0.0257229
0.420138, 0.0328583, 0.771153
0.0306346, 1.72747, -0.456684
-0.106894, -0.0235308, 0.28273
0.161757, -0.6211, -0.184608
-0.822475, -0.119511, 0.506676
0.905009, 0.210311, 0.0623161
-1.62077, 0.556924, -1.21033
-0.299763, -2.46259, 0.620524
-0.225009, -0.203775, -0.80978
0.178168, -0.166618, -0.23716
0.675073, -0.921503, 0.142485
0.238662, 0.351192, 0.564673
-0.0407194, 0.253927, -0.633652
-0.551065, -0.516195, 1.53999
-0.141978, 0.278086, -1.77935
-0.206767, -0.479275, 0.523142
1.63915, -0.333809, -0.860072
0.106491, 1.29503, -1.19514
0.276941, 0.311113, -0.736434
0.475727, 0.255522, 0.453153
2.08343, 0.369664, -0.377294
-1.53195, -0.414564, 0.774925
-1.66113, 0.382623, 0.60592
-0.159616, 0.164475, 0.0206669
-0.26925, 0.571787, 0.288316
-0.0931099, -0.684574, 1.19937
1.36792, 0.628156, 0.462298
0.23715, 1.80785, -0.866728
0.144028, -1.34429, -1.46246
-0.319848, 0.372541, 0.347654
-0.148252, 1.52891, 2.03349
-0.0230909, -0.43703, -0.314575
0.691441, -0.365132, -1.8068
0.674018, -1.08242, -1.36064
-0.122557, 1.12908, -0.0602416
0.258438, 0.518918, 0.670858
-1.10935, 1.71984, -0.446605
-0.0249147, 1.09156, -0.184532
1.00178, 0.191996, 1.09305
-0.255375, -0.14338, 0.369098
-0.804591, -0.839123, -1.50662
-0.107428, 0.110688, 0.792618
1.21367, -0.512608, 0.407539
0.306292, 0.176819, 0.771068
-0.733982, 0.126649, 0.742045
-0.739658, 0.0589966, -0.573168
-0.214986, -0.808442, -1.52414
0.445714, 0.567349, 0.440141
-0.0740389, -1.37222, -1.13032
-0.148652, 0.678731, -1.56588
0.214184, -0.652021, -0.676977
-0.429699, 0.719497, 0.0298473
0.697703, 0.951592, 1.80866
1.29387, -0.136577, -0.730685
0.398092, 0.238181, 0.0590846
-0.536079, 0.0537699, 0.0651411
0.627607, -0.730646, 0.653295
0.162097, -2.0759, -0.582245
0.416808, 0.438839, -0.15129
-0.0821479, 0.482732, -0.224174
0.431371, 0.595291, -0.283771
-2.25354, 0.00518373, 3.23652
-1.51945, -0.82651, -0.390308
-0.95616, -2.01817, 0.67717
-0.119965, 1.67519, 0.830679
-0.416277, -0.471332, -0.73227
0.459349, 3.49741, -0.0374722
1.51673, 0.677586, 1.81134
0.430471, 0.326491, 0.427794
-1.51386, -0.0584882, 1.17236
0.397737, 1.0706, 0.467888
1.20367, 0.767527, -0.363305
-0.331186, 0.343492, 0.41414
0.280966, 1.01468, -0.518799
-1.15584, 0.173958, -1.243
-2.08871, 0.491131, -1.65515
1.62237, -0.100063, 1.05152
1.03709, -1.10637, -0.203415
1.53471, -1.37123, -0.387606
1.85839, -0.701376, 0.452118
-0.130563, -1.1174, 0.557606
0.356477, 2.4493, -0.062343
-0.373323, 0.0574148, -0.589606
-0.371522, 0.379079, -0.55083
2.93884, -0.286758, 0.897366
-0.149761, -0.317363, -0.272732
-0.291317, -0.882323, 1.14264
-0.22808, -0.176099, 0.0917123
-1.52533, 2.4151, 0.58482
-0.502071, 0.0834243, -0.659746
-0.367606, -0.326823, 0.230225
-0.172102, -0.419223, 0.370777
-0.287122, -0.295685, 0.370883
-1.29464, -0.075214, 1.31067
-0.436934, 0.343515, -0.517825
0.810893, 1.2605, 0.310244
0.359006, -1.0923, -0.515451
1.6194, -2.19116, -0.716959
-0.775747, -0.0169958, -1.64824
2.00895, -1.73691, -0.0835552
-0.39106, -0.189788, 2.79027
0.683612, -1.36907, 1.39539
-0.0684077, 0.84868, 0.585091
-0.369054, 0.806056, 1.26777
0.58137, 0.261247, 0.977878
1.3852, -0.0164308, 0.180796
1.3806, 0.0649705, -0.676067
-0.839068, -2.24922, -1.00154
-0.680135, 0.688552, 0.271452
-0.480652, -0.378237, 0.437411
0.115344, -0.595341, 0.165919
-1.79582, -2.9771, 1.54532
-0.336521, 0.696772, 0.14325
0.0745229, -0.190936, -0.236677
-0.666267, -0.698595, -0.479384
0.0403283, -0.00828312, 0.268145
-0.338777, -0.430524, 0.136327
0.135825, -1.07048, -0.964493
-1.41085, 0.149381, 1.70554
-0.262889, -0.214084, -0.0261422
-0.0805883, -0.152852, -0.597553
0.66287, -1.04397, 1.92408
0.829892, -0.742607, -0.389885
0.323203, -1.43428, -0.302197
-0.0287813, 0.0159864, -0.645436
-0.78996, -0.206533, 0.658862
0.474189, 0.102171, 0.426647
0.149199, -0.236641, 0.262903
-0.347014, -2.31599, 0.258912
-4.31535, -1.4471, 0.753086
-0.720401, 0.967295, 1.02389
0.477, -2.40043, 2.30403
1.60973, 1.84678, -0.713933
0.0362394, -0.0961441, 0.132228
-0.675773, -0.579046, -0.236482
-0.346905, -0.27847, -0.961398
0.115462, 0.219354, -1.78568
-0.327739, 0.488949, -0.709721
0.784922, -0.784129, 0.472076
0.141744, 0.416234, -0.6415
-0.101389, 1.46123, -1.48835
-0.422647, 0.542472, 0.300032
2.24831, -2.17836, 0.632033
-1.31334, 0.0115739, 0.742687
0.225036, -0.17704, 0.959859
-0.319004, 0.838314, 0.0527257
2.24479, -2.10625, -1.47139
-1.2632, -1.36094, 0.39591
-0.125842, 0.456696, 0.439397
-1.10819, 0.603403, -0.59296
-0.72032, -0.906375, -0.555611
0.38858, 1.15709, 0.389756
-0.151584, -0.495858, -0.0269937
-0.28306, 1.98769, -0.163773
-1.06571, 0.570642, -1.50333
-0.957336, -0.438246, 1.60462
0.544904, -0.717072, -0.184994
0.200053, 0.799197, -0.548318
0.329971, 0.218153, -0.0252323
-2.8907, -1.70859, 3.62025
-0.379703, 0.727212, -0.198687
-0.903526, 1.24613, -0.401274
-0.197192, 0.395392, 1.3137
0.62143, -1.72855, -0.0812853
-1.14819, 0.036869, -0.669637
-1.12427, -1.14105, 1.69774
-0.921594, -0.822224, -0.156675
-0.251869, -0.115491, 0.346339
-2.02046, -0.135053, 0.912179
1.12444, 1.0047, 0.0671053
0.0461846, -0.259596, -1.00163
1.03956, 1.71366, 1.68496
-0.637509, 0.333414, -0.307339
-1.29329, 2.82986, 1.55445
0.0412131, -0.00874572, 0.980043
-1.63104, 0.506289, -2.88342
-0.95374, -0.949026, 0.69078
-0.657825, 0.752491, -0.474408
-0.232701, -2.04512, -0.116799
0.264957, -1.63689, 0.290932
0.205109, 0.136089, -0.713877
-0.241706, 0.136481, 0.240682
0.587613, -0.241569, 0.533365
-0.121381, -0.436864, 0.0891376
-0.471771, 0.443337, -0.706203
0.779101, -0.744035, -0.873592
1.89659, -0.680145, 0.453381
0.522538, 1.62218, 0.960718
0.178106, -0.4716, 0.615071
2.3673, 0.842444, -0.498639
1.09076, -1.37812, 1.41771
-1.13198, -0.0263137, 0.338536
-0.550756, 0.223371, -0.692997
0.764528, 1.19895, 1.97217
-2.73378, 1.1057, 0.793053
0.687593, -0.208314, -0.406136
0.26999, 0.70446, -0.250258
-0.45319, -0.187973, -0.339107
0.54719, -0.915719, 0.736482
-0.321011, 0.442424, 0.205911
-2.57277, -0.286714, -1.33938
0.225259, 0.236204, -0.362268
0.0602331, 0.181947, -0.164114
-0.666792, -0.859539, 0.884032
0.615218, -0.0394141, -0.69261
-0.698352, -1.51797, 1.81562
-1.49489, -0.684919, -0.586875
0.156568, 0.0764081, 0.638956
-0.520778, 0.134777, -0.577421
0.414634, 2.66093, 2.01782
0.659494, 0.169882, 1.18568
-0.301475, 0.655559, -1.72827
-0.938617, -0.554436, 0.0416999
-0.725161, 0.0703315, -0.0955116
0.0341218, -0.585085, 0.0121607
0.480652, 1.50124, -0.103242
1.42305, -0.347074, 1.17243
0.621422, 0.455109, -0.113976
0.362583, -0.485572, 1.6104
0.199507, -0.543134, -0.260727
0.790742, -0.32118, -0.496457
-0.571331, -0.446357, -1.28195
1.72925, 0.0136688, 2.01148
2.75551, 2.50081, -0.406241
-0.698153, 0.680628, 0.176752
-1.4703, 0.492308, 0.555838
1.60774, 0.447242, -0.696442
-0.833143, -0.70346, 0.573659
2.22292, 2.11424, -0.345912
0.967421, -2.09349, -2.56235
-0.261791, 0.272369, -1.08214
-0.417978, -0.0321732, 0.520364
-0.190332, -0.691124, -0.774454
0.0985823, -0.904181, -0.397815
-0.336022, -2.29306, -2.39315
0.272803, 0.267129, -0.124016
0.84945, -0.88625, 0.474554
2.5287, -1.71307, 1.0537
-0.924079, -0.406846, -0.707093
-0.919062, 0.297236, 1.02208
0.227987, -0.604495, 0.0672907
-0.267566, -0.00182473, 0.60971
0.682973, -0.919248, 2.05943
-0.273284, -2.5265, -0.326893
-0.682696, 1.08169, 2.92602
0.667723, -0.295646, 0.498438
-0.233194, -1.37231, -0.679611
0.399054, 0.426558, -0.720557
1.25446, -0.328277, 1.58631
-1.86023, -1.80844, 2.07693
0.538375, -0.676169, 0.0343492
-0.95372, -0.350007, 0.431135
-0.30522, 0.274176, -0.522771
0.957834, -0.0623098, 0.380681
-0.0884962, -0.680358, -0.223495
2.02143, -2.95886, -0.339295
-0.184682, -0.0536922, -0.0339706
