0.138345, 1.70453, 0.0373863
-0.353574, 1.58357, 0.0260172
0.288118, -0.363319, -0.710269
0.306587, 1.27334, 0.0460317
-0.275966, -0.888736, -0.771966
1.13424, -0.288666, 0.959599
-0.928044, 0.0630658, -1.01484
0.0221935, 0.498695, 1.93513
-0.400331, -0.171071, 0.799016
-0.576964, 0.111735, -0.276606
-0.441687, 0.718182, 1.32512
0.582001, -0.272773, -0.212431
0.780123, 0.575113, 0.201427
-0.92671, 2.66134, -1.42994
-0.536578, 0.303597, -0.554232
0.0447161, -0.00924679, -1.90747
1.09542, 0.117415, -1.5139
-0.522292, -0.683212, 0.307914
0.0911042, 0.641413, -0.926978
0.398907, 0.293431, -0.480329
-2.18038, -0.40728, -0.677111
-0.190093, -0.7893, -1.72782
-0.727397, 0.0419943, 1.26684
-2.39808, -1.79111, 0.24918
0.554647, 0.140816, 0.706745
-0.446705, 1.35416, -0.908658
0.274475, -0.267577, -0.649686
0.362625, -0.319363, -0.646745
-0.767207, -1.80034, -0.498247
-1.07498, -0.670837, 0.743232
0.282954, 0.404285, -1.69713
0.627764, -0.485005, 0.481942
-0.523063, -0.0979389, -0.233341
-0.876877, -1.15804, 0.6891
2.07852, 0.115863, -0.71049
-0.58106, -0.338566, 1.73789
0.230071, -0.339721, 0.76523
0.879618, 0.196791, -0.73454
-0.467647, 3.95942, -0.243286
-0.746693, -1.70246, -0.122935
1.02511, -0.795905, 1.01337
0.914575, 1.02296, 1.15845
-0.0120588, -0.679167, -0.114761
0.570105, 0.417441, -0.246131
-0.0352788, -0.690356, -1.41184
1.39021, 0.890005, 0.6476
-0.136959, -0.0579147, 0.872871
-0.351996, -1.13126, 0.962288
-0.604306, -1.34139, -0.236008
0.881632, -0.182107, -1.0358
0.269035, 0.0608377, 0.45832
-1.46256, 0.983934, -1.02042
0.110105, -0.886499, 0.540112
-1.69878, -0.413621, -0.47937
0.114522, 0.0305402, 0.390043
0.608402, 0.0163845, 0.1749
0.403097, 0.337156, -0.6987
-0.596243, -0.242742, -0.237404
-0.197017, 0.962006, -0.624402
-1.3005, -0.0727958, -0.137704
1.88923, -1.24163, 0.121571
0.581182, 0.6257, 0.243062
-0.195142, 0.00837331, 0.869518
1.49219, 3.17931, 0.649766
0.727298, -0.908025, 0.783314
2.55504, -0.17698, -1.23816
0.0607583, -0.799366, -0.406161
-1.00515, -0.260553, 0.0640035
0.864956, -0.864172, 0.402699
-0.0464261, -0.0405969, -0.317883
0.217029, -0.345696, -0.749276
0.13773, -0.161756, -1.16533
0.562407, -1.75226, 1.45311
0.57215, 0.336119, -0.159005
-0.0401036, 0.796115, 0.130307
0.253612, 1.08028, 0.108333
0.167263, -0.404349, 1.1717
0.560282, -0.576157, 0.275761
-0.354781, -1.25999, 1.57524
0.324654, -0.377721, 1.75543
0.526463, 0.728208, -0.657131
-0.52031, 0.473209, -1.46604
0.874981, -0.527394, -0.591891
0.282862, 0.42928, 0.0440618
-0.413771, 0.920823, -0.741955
-1.77788, -1.3511, 1.33869
0.7473, 1.58561, 0.158475
0.185392, 1.56056, -1.57604
0.851614, 0.782878, 0.574368
0.510992, -0.762562, -0.471665
0.0486623, 2.07685, 0.848616
0.36766, 0.340943, 1.42598
0.313551, -2.52133, 0.185059
-1.45715, -2.35593, -1.4214
0.334312, 0.693021, 0.831509
-0.525944, 0.645614, -1.351
-0.161482, -1.13809, 0.0825558
-0.629331, -0.0920383, -0.476218
0.807799, 0.0859169, 0.385256
-0.202864, 0.329573, -0.250268
0.224355, -1.36845, -1.53382
-1.65361, 1.72471, -0.253686
0.944333, 0.377381, -0.934095
-0.119535, 0.260613, -0.285429
-0.269636, 3.21606, -0.309968
-0.0709797, 2.06536, -1.31407
-0.771109, -0.194745, -0.061276
0.424026, -0.00978356, -0.631617
1.43988, -1.02267, 0.189355
1.01088, -0.438504, -0.356718
1.33793, -0.382259, 0.183243
0.837953, 1.11087, -2.32071
1.35273, 0.0547124, -0.17398
1.31212, 0.415937, 1.48805
-0.897871, -0.176419, -0.303643
0.64291, 0.487686, -1.02695
0.697047, -0.0611957, -0.343573
0.283211, 0.0978646, -0.335954
0.23007, -0.666222, -0.557931
-1.5757, 0.478504, 2.78987
-0.536586, 0.124632, 0.644506
0.0125762, 0.106049, 0.749139
2.45059, 0.191308, 0.234914
0.896541, 0.817369, -0.878859
-0.644256, -0.242332, 0.437739
-0.0799743, 0.446778, -0.492665
0.411045, 0.334512, 0.25335
0.570621, 2.08805, -0.673509
0.236898, 1.17644, 0.0013253
0.632497, 0.0460552, 0.178837
0.453475, -0.626388, 1.3089
0.945177, -0.47976, -0.143839
1.32065, -0.0306047, -0.031645
0.203208, 1.09922, -0.0893502
0.634974, -0.602166, -2.45119
0.829276, 0.420449, 0.462831
0.463422, -0.816886, -1.434
0.0712736, 0.550121, -0.387954
-0.389213, 0.134309, 0.436993
0.815697, -1.56478, 1.94478
-0.0929136, 0.959226, -0.232514
-1.44527, -0.633972, -0.361987
-0.13379, 0.0939855, -0.561887
-0.0807265, -0.416904, 1.22283
-0.400132, 0.0776605, -0.234935
-0.101038, -0.718079, 1.18026
0.774849, 1.89283, -1.84075
0.522315, -0.127152, -0.915181
0.385801, 0.467881, -0.791207
0.13892, 2.14779, -0.162023
-0.385689, -0.988012, -0.35673
-1.19366, -1.49292, 1.80144
1.44691, 0.307946, -1.39035
0.700701, 0.958194, -0.363392
-2.057, 2.3768, 0.343019
1.2293, -0.794941, 3.70234
-1.5296, -0.503284, 0.56987
1.33946, -1.08596, -1.62564
0.928645, 1.78258, 0.567874
0.357582, 0.347951, -0.428548
-0.506005, -0.441703, -0.309196
-0.907146, 0.236401, -0.47198
-1.01227, 0.970422, -0.448729
0.531636, 0.425588, 0.989422
-0.591781, -1.92194, 1.37994
0.833518, -0.995785, 0.645354
0.155071, -0.597192, 0.549171
-0.377811, -0.563244, 0.0185481
0.883465, 2.08472, 0.848561
-1.06318, -0.0665002, -1.96076
-1.46388, 1.17145, 0.657443
0.746885, -0.937592, 0.161925
0.647016, 1.53438, 1.36269
0.614817, -0.533774, -0.069994
0.612787, -0.888687, -0.44527
1.46288, -0.759501, -1.03925
-0.0343494, 0.264308, 0.0129788
0.757686, 1.31437, 0.380065
-0.17014, 1.64877, -1.24197
0.954894, -0.387369, 0.956992
1.54759, 0.332809, 1.3478
-1.09364, 1.75096, 0.521534
-0.488872, 0.75294, 0.464627
-0.399235, -0.403547, -2.05453
-3.63799, 1.75692, -1.11001
-0.533078, 1.6898, 0.576944
0.0982761, 1.02303, 0.724521
-0.365416, -0.353224, -0.164787
1.04365, -0.420607, -0.823736
-0.217899, 0.29281, 0.909864
-0.0289723, 0.0649131, -0.598236
-1.00336, -2.09794, 0.420961
1.65316, 0.765966, -0.355568
-1.24813, 1.38455, 1.17939
0.471548, -0.667173, -0.245764
-1.15176, -0.31915, -0.862798
0.773786, 0.16111, 0.851761
-0.603208, 0.199042, -0.341813
-0.136814, -1.82131, -0.866827
-1.72882, 0.216598, -0.718822
0.387433, 0.322931, -0.272551
1.98614, -1.13998, 0.995997
-0.373083, -0.670924, -1.42146
0.675195, -0.889483, 0.470413
-1.46184, 1.70528, -0.654808
-0.278837, -1.12146, 0.506098
-0.156579, 0.577482, 0.755821
-1.26944, 0.735759, -1.15024
0.824054, 0.774298, -0.169251
1.67015, -1.61387, -1.67746
0.175147, -0.652907, 0.934023
0.334166, -0.476596, -0.585407
-1.08647, 1.66245, -0.0426785
0.149564, 1.06103, 0.00850824
1.49173, 1.26254, -0.877941
-0.515958, 0.534274, -0.716474
1.77442, 2.00639, -0.484104
0.100441, 0.451536, 0.347704
1.27525, -0.392454, 0.94748
-0.102974, -0.832459, 0.81869
-1.34238, -0.485376, 1.90763
-0.857182, -0.692645, -0.471172
-0.570068, 0.0645083, 0.172451
0.13462, -0.0239491, -0.51895
0.0217068, -3.10494, -0.058158
-0.136829, -0.0876827, -1.0056
0.167036, -0.128111, 1.87332
1.15086, 0.0846775, -1.00626
0.80899, 0.231355, 1.29576
0.919563, -0.968385, -0.102042
-0.473105, 0.19755, -0.163805
0.380377, -0.154957, 0.0621212
-0.538246, 0.166844, -0.436727
-0.21924, 0.403456, -0.32725
-0.131122, -0.591563, -0.529186
0.910315, -0.669424, 0.0723773
-0.127726, 0.0772678, 0.368814
0.116687, 0.034783, 0.441838
0.786544, -0.598182, -0.083019
-0.635453, 0.412175, 0.650137
-1.35606, 1.78103, -0.487322
1.34703, 0.274061, 2.33126
-0.555462, -0.878452, 0.202929
0.69203, -0.308952, -0.293911
-1.58567, 0.469469, -0.00662176
-0.1946, 0.103487, 0.953023
0.532608, -0.158985, 0.479583
0.787794, -0.140999, 0.305156
0.462948, -0.537069, -1.75836
0.200327, 0.739844, -1.09437
0.187021, -0.0838551, 0.277593
0.218753, 0.686455, 0.0112108
1.29342, 1.00095, 1.09159
-0.275986, -0.0471722, -0.37995
-0.0224985, 0.57401, 0.560247
0.0547022, -0.752491, 0.995852
-0.516975, 0.702289, -0.0992332
2.23966, 0.785583, -0.630242
-0.41807, 1.57912, -0.856425
0.114503, -0.514098, -1.07539
-0.0905355, 0.537119, 0.974376
0.468246, 0.914404, -0.471424
0.359219, -0.248236, 0.405386
3.54215, 0.0883112, 0.963639
-0.890265, 3.81339, 0.904244
1.65847, -0.708064, 0.941932
-0.562087, -0.514299, -0.496563
0.537333, 0.515227, 0.598122
0.863728, 0.359121, 0.616514
0.921816, 0.222216, 0.380863
-1.51716, -0.00588659, -0.52532
-0.249143, -0.63565, 0.408639
-0.215176, 0.725652, 0.467403
-0.181182, 2.58965, 1.87937
0.177185, 0.0249625, -0.163855
-0.272192, 1.22221, -1.70232
0.871495, 1.29201, 0.308016
1.22253, -0.860163, 0.960384
-0.330779, -0.193187, -0.142443
-0.423389, 4.07722, 3.72365
-0.366387, -0.724639, -0.0386837
0.375044, 0.247109, 0.376942
0.0836688, 1.14643, -0.750363
0.639641, -1.49567, -0.48624
-0.297033, -1.91208, -0.07632
-0.996642, 1.15001, 0.832446
0.224762, 0.313498, -0.36347
0.436948, 0.585071, 0.0373372
0.0525065, -0.128888, 0.25856
-1.44366, -0.252057, -0.707038
1.44691, -0.330149, 1.54857
-1.16414, -0.128111, 0.545275
-0.552634, 0.852558, -0.142807
0.495473, -0.151822, -0.954753
-0.688636, 0.199419, 0.179623
-0.144684, -1.07605, 0.0785003
0.064235, -0.313308, 0.183888
-0.697327, 0.0766201, 0.454912
-4.48701, 2.41159, 1.3384
0.254154, 1.13407, 2.01657
1.16148, -0.198997, 1.69509
-1.41842, -0.109253, -0.553022
0.224493, -1.05061, -1.13174
-0.211476, -0.28665, -0.373513
-0.584148, 1.3973, -2.16764
0.48403, -1.67288, 0.0794045
1.53454, -2.172, 0.667086
1.02227, -0.405485, 0.42679
-0.806114, 0.925332, -0.523524
0.108556, -0.114702, -0.157916
-2.41005, 0.735035, 0.290726
-3.35542, 1.06081, 1.36133
1.26757, -0.683589, 1.40476
1.01762, -0.963156, -0.16632
-0.408137, -1.25794, 0.659937
1.06499, -0.33628, -1.67623
-0.708358, 0.462273, 0.689774
0.0807619, 0.645675, 0.054798
0.298426, -0.612159, 0.302015
0.512242, -1.84402, -0.337564
-1.29545, -3.01093, 0.461808
0.402445, 0.39292, 0.288884
-0.102944, 0.862575, 1.61558
0.130905, 0.356632, 0.27066
0.556633, 2.1061, -1.03918
0.676635, 1.6818, -2.6935
-0.120095, -0.231105, -0.0670174
0.00339317, -0.225865, 0.0736766
-0.595892, -1.78239, -0.527386
1.37163, -0.545871, 0.536765
0.451744, 0.154674, -0.150599
0.418054, 1.00714, -0.660429
0.553141, 0.136157, -0.0744358
1.83712, 0.730517, 0.416589
0.759442, -0.909883, -0.0147485
-0.122828, -0.409916, 0.325797
-0.678746, 0.793842, 0.944915
0.87739, -0.30703, 0.348225
-0.582865, -0.618611, -2.4495
-0.563113, 0.856989, 0.191465
0.277429, -1.72502, -2.28708
-1.10629, -0.230678, 1.62074
-0.925617, 2.11456, 0.813596
1.05447, 0.361174, -0.144911
-0.195419, 0.253924, 0.106957
-0.601545, -1.27456, -0.189985
-0.669825, 1.34405, -1.58419
0.141857, -0.289925, -1.37723
0.84225, 1.44187, -1.2381
-0.665639, 0.046766, -0.16623
-0.0429059, -0.756059, 0.799199
-1.41297, 0.233873, 3.25818
-0.580172, 0.698924, -0.662245
-0.368725, 1.51288, 0.537728
-0.148186, 0.573166, 0.350994
-1.40165, 0.543648, 0.023966
1.52154, -0.948467, -0.689166
2.23626, -1.1825, 0.50214
1.43375, 0.417432, -0.240804
0.140123, 1.25214, 0.133408
0.417014, 0.0592965, 0.191553
0.600315, -0.731289, -0.561465
0.00760675, 1.68652, -0.773345
-0.525202, 0.515695, 1.90465
-0.579004, -2.37198, 1.6398
0.119345, -1.75841, 1.93765
0.904258, -0.612971, 1.32818
-0.888323, -1.47332, -0.560236
0.411372, 1.63086, -0.260221
-2.42532, 0.707113, 0.483905
-1.23493, -1.55183, 1.90136
-1.63997, 0.366224, -0.558636
-0.388734, -0.726109, 0.289145
-0.830096, -0.647728, -1.90682
0.536374, -0.122764, 0.251615
2.13692, -0.887043, -0.0998035
-0.921314, 0.192401, -1.55943
1.71813, -0.464549, -0.937136
0.00128822, -0.480988, 1.30599
0.950441, -0.929682, -0.880045
-0.258476, -0.95891, 1.43402
0.294972, 1.30355, -0.747385
0.128497, 0.168871, 0.455983
2.16806, -0.14056, -3.91074
0.0638658, -0.509175, 0.439835
-0.545078, 1.11177, 0.791332
0.710855, 0.864759, -0.592078
0.939227, -1.02275, -1.27778
-1.26377, -3.30936, 1.88683
0.315317, 1.70489, -0.973426
0.582408, 0.125988, -0.529808
1.06578, -1.53047, 0.718315
0.542916, -0.0151774, 0.44207
-1.23071, -0.335331, 0.319044
-0.0111851, -0.638845, 0.990233
-1.86538, 0.878754, -0.614039
0.254083, -0.52615, -0.467182
1.53909, -1.50629, 0.949739
-0.957147, 1.37067, 0.737998
-0.652223, 0.193774, -1.32034
-1.75484, 0.224792, 0.392303
-0.474603, 0.207697, 1.34854
0.204494, -0.446569, -1.18793
-0.663305, -1.50773, 0.451305
-0.039029, -1.7622, 1.27059
-0.344038, -0.833489, -1.26139
0.214678, -0.946254, 1.15517
-0.0154557, -2.80997, -0.871529
-0.842144, 0.700932, 0.543137
0.00732033, -0.333925, -0.212375
-0.361341, -0.308517, 0.0506152
0.680128, -1.03238, 0.61258
0.317944, -1.77183, 2.10774
1.18668, -0.352631, -0.68248
1.37074, -0.134369, -0.981622
1.98168, 0.929694, 0.472744
0.57862, -0.814189, 1.40476
-0.92687, -1.03259, -1.78475
-0.322075, -0.597582, 0.78031
-0.426075, 1.18268, 1.08291
1.38767, -1.12756, -0.473965
0.706315, -2.01488, -0.0942631
0.767733, 0.390196, 0.646875
0.679197, 1.98047, -1.88633
-1.38123, 0.688936, -0.0487796
-1.39756, -1.31355, -0.773989
-1.16573, -0.970305, -0.0144217
0.931331, 0.0197809, 0.0317916
-0.605316, -1.06424, 1.53325
2.37688, 1.41022, 0.0614616
1.37603, -1.52792, 0.453839
1.2438, -0.460475, 0.593822
1.4388, -0.245394, 0.817329
-0.384074, -0.433894, -0.0891313
-1.9977, 0.131808, 2.3983
0.37618, 0.184648, 1.07003
-0.954212, 3.10093, -2.53135
1.26289, 0.668805, -0.475597
-1.98997, 1.60762, 0.545366
-0.375878, -0.0243804, -0.76178
-0.642249, 2.42815, 0.52261
0.126596, 0.662597, 0.608375
-1.46877, 0.585698, -0.116576
1.02782, 1.17757, -0.293796
-0.591424, -1.07117, 2.36928
-0.490236, -1.35509, -1.3207
-4.28197, -0.803885, -0.407618
0.772565, -0.371962, -0.210815
-0.970415, -2.9353, 2.15012
-0.319552, 1.50357, 1.99188
0.449522, 0.272603, -0.235974
-0.995862, 0.419103, 0.428161
-0.531443, 0.271903, 0.879642
0.973077, -0.954646, -0.500429
0.27779, -0.186138, -0.316477
-0.100992, -0.174497, -0.385409
-2.51143, -1.17519, -1.34704
0.60527, -0.639657, -1.89199
0.0107208, -0.0213604, -0.237015
1.30905, -1.36245, -1.12149
1.14189, -0.0324393, 1.01799
-0.358607, 0.873963, -1.29973
0.60322, 0.367429, 0.405307
-0.951759, 0.702157, 0.49566
-0.0850791, -0.0576177, -0.381702
0.508731, -1.49876, 0.363846
1.48004, -0.620666, 1.53208
-1.09362, 0.787956, 0.217269
0.265416, 1.3736, 0.61076
-0.0732629, -0.313288, -3.85543
-0.622567, 0.439011, 0.898537
-0.238038, -1.33843, -0.232524
0.553247, 0.170176, -1.3078
0.0592676, 0.578799, 0.232867
0.585477, 0.125011, -0.798939
-0.00383111, -0.99058, -1.44101
-0.73943, 0.500715, 0.0434604
-0.847621, 0.0351081, -0.142352
0.699279, -1.36062, 1.21695
0.0125982, -0.0816131, 0.0463583
1.18426, -0.256235, -1.40849
1.05571, 1.62915, 0.467901
-0.0764485, -0.0409348, 0.26904
-1.02172, -1.66519, -0.676722
1.38616, -0.150532, -0.99494
0.895537, -0.55139, 1.10107
0.0552541, 0.465803, 0.591009
-0.181659, -0.176597, -0.0988467
-1.9044, -0.387667, 0.341832
0.463125, -1.23627, 1.40792
-0.0394602, 0.986297, 1.04065
-0.410342, -3.23351, -1.18854
0.439037, -2.67961, -1.75899
0.2234, 1.12568, -0.710469
0.761507, -0.788902, 0.206612
-0.0466018, 1.05098, 0.433653
1.59251, 0.750386, -1.39988
0.377736, 0.0869553, -0.325417
-0.372763, -0.492185, -1.37673
0.395833, -0.29703, 0.737931
0.274214, 0.625667, 1.94103
-1.18621, -0.35672, -0.324928
-0.209773, -0.946645, 0.0755948
3.18425, 1.05762, 0.218053
-0.649581, 0.371306, 0.226461
0.334884, 0.755685, 0.358442
-1.47271, 0.822504, -2.641
-0.934325, -2.4575, 0.690375
-0.679486, -0.136393, -0.025465
1.25844, -0.992819, -1.03374
1.47538, -0.620162, 0.789056
-0.60985, 1.57738, -0.473535
-0.0704132, 0.0544796, -0.730053
-0.88902, -1.28742, 0.336735
-0.321839, -0.603525, 0.0747171
0.474061, 0.614114, -1.18102
1.6264, 0.839335, 0.220329
0.758266, -0.883358, -1.9758
0.711021, 1.66496, -0.814371
-0.0915468, -0.981981, 0.415797
1.43445, 0.423756, -0.177383
-0.592406, 0.334388, 1.9202
0.7757, 0.548415, -0.63768
2.3258, -0.91745, 0.165279
-0.281004, 0.228968, 0.307383
2.20964, -0.653017, 0.292607
0.72995, -0.43244, -0.199548
0.385901, -1.7469, 2.56533
-0.873353, -0.312957, 0.136045
-0.223255, -0.275436, -0.562094
-0.232343, -0.382205, -0.144582
-0.184674, -0.410721, 0.394591
-0.206762, -0.243007, 0.54806
1.11946, -0.0765911, 0.194654
1.91253, -2.5069, 1.59897
-0.403483, -0.761386, 0.218097
-0.669818, -0.833387, -0.415938
0.0614299, 3.0984, -1.09453
1.45475, 2.36567, 0.885991
0.17962, 1.24943, 0.12192
2.35162, 1.77581, -0.92497
0.862001, -1.82932, 0.570809
0.722876, -0.315302, 0.997135
-1.00922, 0.402368, -0.977097
-0.406808, -0.336157, 0.138486
1.06509, 0.48772, -0.599953
0.200304, 0.335121, 0.366315
-0.279785, 0.306495, 0.475686
0.883667, -0.579282, 0.0187091
0.231547, 0.41546, 0.179629
-0.205916, -0.0662883, 0.725992
-0.0541501, 1.25927, -0.588319
0.394524, 0.462096, -0.295684
-2.02359, 2.9397, 0.406538
-1.21433, 0.283958, -0.48586
0.343625, 0.661267, 3.06281
-0.691341, 0.15407, 0.348761
0.799449, -0.0535926, 0.271714
1.04692, -0.791143, 1.22701
-0.248631, -0.351387, 0.421921
0.0632383, 0.629989, 0.900513
-2.02846, 0.839215, -0.468934
-1.00944, 0.397341, -0.793324
-0.288756, -0.904075, -0.568161
0.315362, -0.556822, -0.564407
-0.485883, -0.242772, -0.450839
0.824455, 0.208395, -1.56067
0.608616, 0.511499, 0.883389
1.45415, -0.0796845, -1.09441
0.0519273, -0.698984, -0.29923
0.166589, 0.728342, 0.494314
1.45639, 0.0327783, 0.431995
0.0556965, 0.24494, -0.937344
-0.168536, 0.692828, -1.05611
0.54755, 1.07508, -0.868185
2.63266, -1.71832, 2.1139
0.0416945, 0.161904, -0.182802
-0.0166005, -0.625377, -0.0430797
1.16048, -0.085361, -0.289339
-1.36679, 0.790393, 0.170368
-2.53153, -1.36562, 2.82428
-0.81676, -0.510908, 1.67131
0.192023, -0.439278, -0.532122
-0.742844, 0.158606, 0.583051
0.815316, 0.291918, -0.153903
-0.397058, -0.249307, 0.0126153
1.00904, -0.123241, -0.342879
-0.549326, 0.748448, 0.239789
-0.260941, -0.283285, 0.00697487
-0.241883, -0.715845, -0.563454
-0.300256, -0.0612759, 0.781641
1.33153, 0.684649, -0.704222
-1.28802, 3.34514, -0.258805
-0.575106, 0.251294, 0.523032
1.5751, -1.60147, -0.635754
-0.556131, 1.03613, -1.88305
-0.0563577, -1.11878, 0.108222
0.814714, 0.41865, 0.101256
1.58483, -1.96863, -2.00313
0.150011, 1.49769, 0.341324
-0.758873, -0.781821, -0.298692
2.27088, 1.13756, 0.275827
0.933608, -0.107596, -0.0783883
-1.1247, 0.773426, 0.131266
-2.11328, -1.44261, 0.521035
0.886345, 0.639386, -0.727478
-0.462911, -1.69203, -2.40627
-1.57553, 0.668037, 1.2882
0.574341, -0.449464, 0.867229
0.242515, 0.616243, -0.292904
-0.176222, 1.22681, -0.295232
-0.245155, -0.260687, -0.31217
-0.120519, 0.247961, -0.799254
0.796816, -0.73114, 1.34386
-0.426097, -0.341961, -0.928649
1.6526, -1.96676, -0.614935
2.11949, 0.610488, 1.33759
0.305372, 0.511738, 0.0404881
-1.57854, -1.36458, 0.541246
1.71405, 1.78251, 0.935319
0.426627, 0.0123605, 2.50538
0.87793, -1.41404, -1.36077
0.0465945, 0.865008, 0.908836
0.886071, -0.818666, 0.95235
0.0699055, 0.0525592, -0.913495
-1.70056, 1.11342, -0.792553
0.710119, 2.68965, 0.682618
-0.0587279, 0.0617236, -0.241918
-1.04445, 1.65982, 1.77615
-0.501545, 0.389382, 0.8299
0.819843, 0.216391, -0.735186
-0.273275, -0.56065, 0.388731
0.769914, -0.745526, 0.48875
-0.235995, 0.199052, -1.3701
0.327338, -0.726086, -0.740791
0.305802, -0.209772, -0.56563
-0.28874, 0.138235, 0.0250291
-1.22056, -0.967877, 0.992042
-1.2353, -1.02549, 0.434868
-0.999435, 0.213061, -0.878849
-1.63835, -1.3917, -2.10715
-0.0516442, 0.0682502, -0.44215
0.283052, -0.409075, -0.996191
-0.775444, -0.11815, 1.72176
-0.122781, -0.437062, -1.01294
-0.130959, 0.83919, -0.285217
1.02468, -0.039574, 0.130266
1.0891, -0.280328, 0.314883
0.321581, 0.367473, -0.00601422
0.0440183, 0.583126, 0.398515
-0.384704, 0.696352, -0.999182
-0.267714, 1.35982, 0.0240027
-0.668658, 0.749034, 0.781544
0.415345, -0.0386063, -1.08991
-0.362066, 1.77499, 0.165875
0.0260793, -0.161487, 0.181036
0.719734, 0.192363, -0.054916
-2.26711, -0.0880654, 1.66606
-0.670281, -1.21621, -1.13858
0.159296, 0.737489, -0.389956
0.295477, 1.00117, 0.157621
0.366536, -0.792378, 0.357811
-0.12776, -0.47073, -0.109839
0.209029, 1.77986, -0.0138376
-1.04608, -0.348574, -0.277922
-1.01037, -0.495431, 0.465143
2.3158, 0.902322, 1.75466
-0.0203856, -0.711172, 0.14188
-1.47708, -1.03163, -0.336393
-0.0832981, 0.193619, 0.567872
0.322936, 0.188019, -1.30711
0.283578, 0.288394, 0.869023
1.74695, -1.10513, 0.295751
0.771945, 0.968262, 1.8048
0.0362505, -0.470815, 0.231853
0.834926, 0.822396, 0.918122
0.602446, 1.08113, 1.1708
0.357647, 0.172434, -0.278077
0.110088, -0.257992, -0.355099
-0.394295, -0.488865, 1.2334
2.16928, 1.12115, -0.193585
1.0857, -0.288176, -0.558439
0.311551, -1.36489, -0.14443
-1.62317, -0.647925, -0.119134
1.16258, -0.346069, -0.119643
-0.763685, -0.139288, -0.831745
-0.596738, 0.215604, 0.578194
-0.060831, -0.102, -0.00163394
-0.150189, -0.314696, -1.02207
0.740654, 0.893037, 0.536544
0.347043, -0.735586, 1.94393
-0.916589, -0.847087, 1.56853
0.193311, 0.783985, -0.181627
2.16404, 1.90507, 1.05328
-1.03125, 0.353031, -0.796896
1.15672, 1.04371, 0.164209
-0.346277, -2.4795, 0.0952258
-0.294639, -0.24295, -2.40334
0.734577, -0.954637, -0.199367
1.95387, -0.538131, 2.01591
0.619484, 0.0892565, -0.284425
-0.398686, -0.469209, -0.930126
1.11006, 1.0091, -4.32532
1.25535, 0.0291732, 1.01053
-0.677085, -1.52551, -0.838164
-0.819186, -0.438501, -1.11351
-1.05495, -0.190049, -1.02139
-0.67059, -1.09147, 0.21508
0.230935, -0.601206, 0.0848678
-0.137083, 1.12826, -0.0783222
0.0639782, 0.346835, -0.216154
0.226093, 0.398501, -1.37257
0.639562, 0.103493, 0.8932
0.664298, -0.463331, 0.113261
0.632128, -2.21906, -0.510498
-0.0825518, -0.159007, -0.192432
0.836618, -2.51162, 0.454967
0.784128, -0.298855, 0.438165
-0.443029, 0.426226, -0.482522
-1.48545, -0.438063, 0.209454
-0.307655, 0.143148, -0.340672
-0.4419, -2.59549, -0.905049
-2.19885, 1.23695, -0.542601
-0.150033, 1.8613, 1.27915
-1.82556, -3.03658, -0.486159
2.2854, -0.413031, 1.35016
2.7644, 0.663954, -0.416485
-0.0917057, -0.494404, 0.100914
1.41789, -0.0965525, 0.663071
3.02884, -0.249689, -2.24186
-0.340332, 0.16888, -0.22917
0.379583, -1.63791, -0.779435
0.344871, -0.534487, 0.423323
-0.169311, -0.534738, 1.30264
-1.70614, -3.16699, -2.21197
-0.492754, -0.0323279, 0.272332
0.0743252, 0.204772, 0.481889
0.356137, -0.875048, -0.234524
1.40617, 1.67859, 0.288572
-0.307611, -0.880013, -1.35295
2.00155, 1.31113, 1.0894
-0.639125, -0.118738, 0.452968
1.24653, -0.885549, -0.0549727
-0.0138677, -1.08838, 0.374676
0.102809, -0.297623, -0.992249
-0.806912, 1.05693, -0.180175
-0.24962, -0.370738, 1.14725
0.442669, -0.232138, -0.7872
-0.913282, -0.814788, 0.73685
-3.48667, 1.7097, -1.92352
0.426011, 1.51415, -0.390853
-0.699558, -1.29507, -0.686061
0.587865, -0.855745, 0.578127
1.68369, -0.839456, 0.0865565
1.23607, 0.734646, -0.0661426
0.118666, 0.0358442, 0.0833211
-0.218785, 0.0439185, -0.181363
-0.435467, -2.75547, -0.227338
2.24637, -0.360383, 0.417322
0.0385874, 0.0803664, 0.852618
-0.189174, -0.655532, 0.647802
-0.320197, -0.129561, 0.0756124
0.304429, 0.952635, -2.5233
-0.244485, -0.290873, -0.105147
-0.422092, 0.823174, 0.109674
1.02583, -0.64155, 0.0453337
-1.57346, 1.23455, 0.918475
-0.599616, -1.41261, 0.813845
-0.566444, 0.145912, -0.532567
-0.45462, 0.0110473, -0.124988
-0.263257, 0.216594, 1.06912
0.577002, -0.320697, -1.66723
-1.06735, 0.335746, 0.506802
-0.0429553, -0.226577, -0.413924
0.921176, 0.0898818, 0.447661
-0.354703, -0.800618, 0.778051
-0.368288, 0.0317632, 1.45913
-3.027, 1.1464, 0.614823
0.20405, -0.571283, -0.477244
-1.16036, 0.383901, 1.29042
1.0802, 0.0717927, 0.662823
0.296139, -0.109492, -0.971429
0.305762, -1.43828, -1.48707
1.36646, 0.120466, -0.841015
-0.548253, -0.497955, 0.344674
-0.245827, -0.509962, 0.249539
-0.101936, 0.898326, 0.882978
-3.73995, -0.97026, -0.0582393
-0.395947, -0.216134, -0.0180047
-0.436132, -1.45129, -0.0326862
-1.66444, -0.943316, -0.978481
1.60607, -0.629303, -0.338197
-1.1473, -0.985375, 0.0197546
-0.923637, 0.0772636, -0.0673011
1.46292, 1.93364, -0.223386
-2.71982, -0.326853, 0.784141
-0.536942, -0.759343, 0.00107996
0.609837, 0.181663, 1.09125
-0.167606, 2.14891, -0.774273
-0.595969, -0.256942, 0.304069
0.0350985, -2.05975, -0.551982
-0.303006, -0.274941, 0.334327
0.367111, -0.155704, -0.747866
-0.0724426, 0.227971, -0.210886
-0.701207, -0.943379, -1.07122
-0.282643, -0.586024, 0.489411
-0.0879531, -0.12658, 0.556096
1.0285, 1.49954, 1.36433
-0.291234, -0.451538, 0.254173
-0.530346, -0.734709, -0.899593
0.487337, -0.00293667, 0.800953
-0.706032, 1.11354, -0.179061
-0.228089, 0.245792, -0.320487
-0.220292, 0.583782, 0.289971
0.22549, -0.0727214, 1.35779
0.00590217, -2.64562, -0.145376
-1.36553, -0.230304, 0.161404
-1.44602, 2.27736, -0.857339
-0.744983, -0.701806, -0.526415
-1.49662, -0.416996, 0.751518
-0.0462241, -0.0228999, -0.264329
0.411136, 0.0067895, -0.604087
1.14984, -2.14176, 0.535508
-0.313767, 0.126568, -0.641647
-2.2831, 0.750008, -1.9874
-0.452611, 0.27998, 0.255
1.07389, -0.842187, 0.7895
0.413955, -0.595256, 0.304506
-2.06323, -2.19924, 0.119859
-0.731098, 1.3623, 0.603722
0.304174, -1.43561, 1.6994
0.187621, 0.744204, 2.12109
0.00363887, -1.00544, -0.222034
-0.495687, 0.872166, -0.842033
0.0598092, -0.0241582, 0.150984
-0.298238, 1.02432, 0.182978
-0.22603, 0.143041, 0.529382
0.133168, -1.1041, 0.48366
0.509196, 0.0017421, -0.240016
-1.049, -1.0436, 1.26339
0.245962, 0.58296, 2.193
-0.291495, -0.318274, 0.0939728
0.278916, 0.158634, -0.952165
1.57681, -0.0340092, -0.716153
-1.07384, -2.04841, 0.628042
-0.602009, -0.850859, 0.697208
1.56852, -0.452948, -0.415972
0.425847, -0.451025, -0.285178
2.61582, 0.835993, -1.31798
-0.0738265, -0.762456, 0.360676
-0.296263, -0.766747, -1.13331
-0.86112, -1.63924, 0.248699
-1.11971, -0.842723, 0.290749
0.364691, -0.476294, 1.02054
2.29149, -0.158548, -0.655524
-0.906307, -0.540526, -0.629986
0.294862, -0.550448, -0.739684
-1.62407, 0.0279735, 1.22761
0.161809, 0.373369, 0.0233275
0.149329, 1.1961, -2.10671
-0.979671, 3.92227, 1.4761
-0.218291, -0.330049, -0.559112
-0.309654, 0.390042, -1.32748
-0.377067, -0.612042, -0.351167
0.722538, 0.190612, -0.490724
0.237948, 0.4534, 0.381103
-0.221744, 0.135564, -0.619834
0.176851, 0.479053, 0.0363447
0.161642, 0.578022, -0.186923
1.60065, -2.12249, 0.377887
-0.168881, 1.61464, -0.0957377
-0.736086, 0.437557, 0.551126
-0.337076, -0.617089, 1.18632
-0.169973, -2.06652, -1.58653
0.548893, 1.01222, -0.985954
0.0364118, -1.99207, -1.25491
0.0284162, -0.625069, 0.0198038
-0.237268, 0.971406, 0.0918004
-0.273249, -0.183147, 0.0649848
1.5319, 0.0879883, 0.870647
0.924826, -0.306834, 1.5564
0.544483, 2.12599, 2.15018
0.462881, 1.15086, -0.308359
-0.648263, 0.55768, 1.88007
0.00477897, -0.169053, -0.606021
-0.424512, -0.9329, 0.650285
0.666208, 2.39572, -0.0897512
-0.138013, -1.09042, -1.92088
-0.672082, 0.767316, -0.786368
1.20901, -0.438065, -1.76677
0.0635713, -0.127356, -0.280365
1.50025, -2.20604, 0.759318
1.34211, -1.36331, 1.10079
0.943195, -0.725107, 0.589557
-0.591256, -0.116249, 0.595594
0.268427, -0.0874715, 0.16515
-1.52278, -0.430431, -1.49641
0.426081, 0.502881, -0.043301
0.913144, 0.847749, 0.766235
3.0905, 0.921102, 0.94198
0.775839, -0.25829, -0.0892201
-0.0952525, -1.45844, -0.500594
-0.359217, -0.327942, -0.127422
0.799387, -1.23974, -0.689901
0.542024, 0.178218, -1.16929
0.47219, -0.233517, 0.732248
-0.508824, -0.795785, 0.115291
2.14804, -2.90973, 0.232392
0.137515, -0.111416, 1.5404
-1.12943, 0.705223, 0.570491
1.22803, 0.815582, -0.900494
1.0171, -0.0786895, -1.0663
0.947088, -1.27264, -0.165726
0.564023, -2.05397, 0.249272
0.15512, -2.12903, 0.168355
0.291885, 0.357784, -1.21601
0.703541, -1.01195, -1.08704
-0.280657, 0.357334, 0.35666
-0.210371, -0.167602, 0.239444
0.42618, -0.886021, -0.75664
1.32639, 0.316013, -1.00191
0.530264, 1.75866, 0.0312865
-0.493839, -0.0119471, -1.40968
-0.777465, -0.432098, 0.450754
0.231575, -0.882621, 1.02333
-0.738911, -1.55511, 1.49706
-0.691193, 1.42261, -0.0756715
-0.432709, -1.10805, 0.848443
-0.383475, -0.619019, 2.45295
-0.771823, 0.37922, -0.560827
-0.48907, 0.553516, -0.274062
0.13308, -0.841971, -0.301945
1.19791, -0.218685, 0.0110202
0.238454, -0.70323, 0.256405
-0.933054, 0.108583, -1.55669
2.13675, -0.455274, -0.599905
-0.98822, 1.08993, 1.58423
0.336136, 1.52675, -1.38541
0.126399, 0.273528, 0.426626
-0.460945, -0.558049, -0.0312075
0.353797, -0.0118355, 1.01515
1.04506, -1.20239, 0.191984
-1.24144, 0.15096, -0.245696
-0.12336, 0.704591, 0.591488
1.00031, 0.263196, -0.759226
-0.211698, 1.25526, -1.16235
0.651441, 0.294206, 0.183265
-0.044215, 0.227629, 0.108867
-1.21239, -0.129736, -0.407487
-0.222576, -1.26446, -2.77659
1.253, 1.14109, -0.822351
-2.24411, 0.108596, 0.236691
0.246192, 0.00127406, 0.0840252
1.052, -0.197245, -0.40487
0.757132, 0.980939, -2.62517
1.20774, -1.88391, 2.47671
0.166743, 0.33077, 1.02633
0.226913, 1.66534, -0.88202
-0.41001, -0.559721, 0.264686
-0.393554, 0.826048, 0.758172
-0.1596, 1.16088, 0.688499
-0.705458, 0.262756, 0.206189
0.315642, -1.68435, -0.449847
0.212955, 0.72367, -1.96529
-0.3122, -0.925936, -0.0102131
0.511511, 0.516196, 0.841757
0.500862, 0.844241, 0.434924
-0.386568, 0.126356, 0.113221
-0.358801, 0.168544, -0.341402
-0.721899, -0.902205, -0.89188
0.125248, -1.00335, -0.202548
0.401206, 0.516531, 0.374313
-0.210974, -0.680713, -1.53637
1.00003, 0.770003, 0.276472
0.313714, 0.398051, -0.0743837
0.23965, 0.11659, 0.424368
-0.917449, -0.354074, -0.152442
2.51333, -0.013056, 1.33257
0.437381, 0.4883, 0.523637
1.02557, -2.63241, 2.92638
2.2493, 1.49426, 1.19514
0.615526, 0.430722, -0.511129
-0.42338, 2.15974, -1.44199
-1.05563, -0.512841, 0.982853
-0.601225, 2.63638, -0.357143
-0.644414, 1.08446, -0.177323
-1.90214, -0.252712, 1.47109
-0.90757, 2.06419, -0.924158
-1.11568, 0.484828, -0.205426
0.229867, -0.296402, -0.365039
0.39527, -0.910749, 0.59577
0.0533515, 0.0559574, -0.40893
0.956817, 1.42793, -0.835225
0.782278, 0.521701, 0.145808
0.123888, 0.404117, 0.341051
2.15149, -1.41381, 1.64682
-0.128065, -1.71884, -1.5497
0.936078, -0.574348, 0.98249
-1.15988, 0.561157, -0.427069
-0.729095, 0.614429, 1.6046
-1.11, 1.38528, 0.227356
0.114802, 0.506254, 0.523105
-0.9577, -0.153014, 2.89964
-0.617175, 0.271272, -0.348289
0.0390699, 0.617241, 1.66146
1.11664, -0.128772, 0.274387
0.364186, -0.267999, 1.15823
-0.999385, 0.510058, -0.724012
1.62238, 0.847982, -0.240734
-0.573209, 0.780232, 0.874147
-0.497356, -0.0143821, -0.346237
0.846288, -1.4812, -0.579436
-0.13896, 0.120665, 0.21012
-0.553456, 0.606086, -0.023433
-3.44438, 0.124445, 0.271623
0.804664, 0.257698, -0.100676
0.912554, -0.212722, 2.1127
2.90961, 0.142422, -0.23858
0.0772186, -0.236855, 0.709537
0.484624, 0.109571, 1.10618
-0.573039, 0.60781, -0.177474
0.360248, -1.28497, -0.202913
-1.32981, -0.351485, -0.0284527
-1.72974, -1.99166, 0.490857
1.82656, 1.18465, 1.15415
0.653053, 0.416142, -0.11455
-0.328214, -0.261779, -0.568759
-0.40175, 0.1868, 0.682631
0.353518, -2.08317, -2.1921
0.284254, 0.69441, 1.20962
1.11083, -0.604597, -1.35201
-0.112228, -0.868867, -1.12585
-1.53798, 0.356787, -1.69603
-0.423042, -1.21608, 1.07105
-0.336372, -0.188252, 0.0182132
0.602117, 0.548222, 0.0816723
0.101959, -0.275976, 0.831325
-1.16995, 0.933686, 0.268368
0.399865, 0.112657, -0.595143
0.0666358, 0.530277, 0.564482
-0.423727, -0.114474, -0.167346
-1.1562, 1.12083, 0.18375
-1.87626, 0.194518, 0.487414
-0.168549, 0.266652, 0.0692696
0.570128, -1.01159, 1.20483
1.06855, -0.596048, 0.846111
-2.06803, 1.15753, 0.469845
0.549825, -1.4209, 0.205112
-0.148155, 0.675117, -0.472913
2.10866, -2.07679, 0.223764
0.722072, -2.50435, -0.600436
0.671149, 0.110504, -1.54509
1.03488, -0.224637, -1.07387
-0.970553, -0.553333, 1.30047
-1.09297, 0.585979, -0.204328
-2.24128, 2.30803, 0.300239
-0.195443, -0.318718, 0.429489
-2.4632, 1.97273, -0.997019
-0.762274, -0.36081, -0.330016
-0.902536, -0.103621, 0.297422
-0.0596669, -0.329057, -0.130457
-1.11273, 0.0872071, 0.0656425
-0.986545, 0.878365, -2.39825
-0.267646, -0.59927, -0.997668
-0.965983, -0.812073, 1.72418
-1.94138, 0.624416, 0.525117
0.393198, 0.312667, -0.953199
-0.262371, -0.372775, -0.00510619
-0.420355, 1.07326, -0.171564
1.60568, -0.776358, 0.621844
1.41196, -0.484599, -0.948696
0.32443, 0.875787, -0.227996
-0.568908, 0.212859, -1.00256
0.0558627, 0.662899, 0.515243
-0.0633304, 1.26165, 0.837482
2.33482, -1.17915, -1.98332
0.399525, 0.253546, 0.121666
-1.76027, 2.34094, 2.41019
0.447553, 0.533929, 0.4118
-0.845461, 0.16035, 1.26116
0.588431, 0.00536988, -0.566181
-2.93479, 0.132161, -2.8774
-1.07596, -0.912017, 0.919096
1.53676, -1.44396, 1.72293
0.431258, 0.137091, -1.04291
-1.07678, 0.655546, -0.496373
-1.56277, 3.21021, -2.24308
0.210813, -1.0994, -1.7284
0.497137, -0.208962, -0.310741
-1.71073, 0.174106, -0.108333
0.617468, 0.947622, 0.527019
0.0271617, -0.318946, -0.162886
-1.37569, 1.60647, -1.8424
-0.255069, -1.53501, 0.366638
0.382842, -0.965457, 0.12816
0.497482, 0.443226, -0.101154
-1.29732, -0.469613, -0.0339689
-0.246008, -0.380407, 1.09681
-0.147833, -0.711653, -0.0128733
-1.6452, -0.480426, -2.56373
-1.9934, -0.13289, 0.654729
0.710642, -0.773623, -0.46522
-0.0312887, 0.144747, -0.496192
0.387093, 0.0118176, 1.175
-0.574046, -0.395941, -0.0988487
-0.444895, 0.169141, 0.00821433
-1.01923, -0.374009, -0.0363068
-0.306436, -0.197388, -0.372666
0.797458, 0.670003, 1.28179
0.222668, -0.319882, 0.681025
0.576408, 2.11375, 0.415443
-0.481445, -0.467181, 1.79241
0.182711, -0.262167, -0.314038
-0.879508, -0.485062, 2.05972
0.131607, 0.232588, -0.543231
-0.171781, -0.347357, 1.05349
-0.526114, 1.18813, -1.17408
1.42224, 1.43701, 0.439867
-0.514069, -1.36025, 0.0658722
-0.288688, 1.51259, -0.964229
-0.171677, 0.688445, -2.03573
0.0576561, 0.600863, -0.312644
-0.107232, 0.895075, 0.921406
-0.841576, -0.777635, -1.06632
-1.01675, 0.406493, -0.097592
0.523015, 0.887887, 0.0564046
-0.407945, -0.578601, 0.269052
-0.242677, -0.158161, -0.766449
-0.314039, 0.0778547, -0.836104
-0.50625, 0.0395108, -0.495406
0.406469, 0.810821, 0.462869
0.432275, 0.369724, 2.4372
0.12352, 1.26035, 0.979866
1.11421, 1.98104, 0.143926
1.2278, 1.3144, 0.391882
-0.314441, 0.0306739, -0.0798079
0.621367, -0.117563, -0.471731
-0.0999034, 0.610439, 0.510296
-0.795757, -0.871125, -0.729231
0.494385, 1.63268, -2.09333
-0.0199148, -0.135669, -0.922246
1.62665, 0.878148, -0.537271
-0.111139, 0.669298, 0.231381
-0.738711, -0.501327, -0.55348
-0.319778, 0.277367, 0.336041
1.72996, -0.366919, -1.20577
1.49259, 2.62231, 0.405188
1.25388, 1.00836, -1.20957
0.328898, 0.444551, -0.0229247
1.52352, 2.08456, 1.40283
0.603854, -1.38335, 0.182515
-1.39884, -0.139924, 0.0590789
2.63888, -0.511772, -0.487397
-0.331949, 0.134587, -0.0665418
-1.70126, -0.22002, -1.00854
0.154244, -0.471162, -0.57323
0.237878, 0.0909666, 0.438186
-0.898614, 0.737917, -0.37606
0.724242, -0.245225, 0.209283
0.694645, -0.420052, 0.318899
-0.956102, 1.15363, -2.12825
0.608551, 0.806631, 1.29274
-0.241063, 0.343112, 0.29123
0.594057, 0.699852, 0.205352
-0.166626, 0.227188, -1.40559
0.0626455, 0.21288, 0.432156
-0.197945, -0.654744, -0.0880893
-2.23907, -1.54143, -1.77573
0.601054, -0.863527, -0.612458
1.9145, 0.585962, 0.0163879
2.74208, 0.305398, -0.21865
-0.304541, -0.896579, -1.09023
0.536815, 0.0459158, 0.15647
-2.16504, -1.29359, -0.941232
0.291584, -1.00746, 0.120216
0.28443, 0.264644, 0.213532
-1.34593, -0.183342, 0.132182
-0.0938365, 0.400597, -0.356509
-0.844836, 0.498429, 0.3564
-0.245518, -0.582145, 0.186031
0.198284, 0.379189, -1.44466
-0.452362, 1.02193, 0.3971
-3.56, 0.329049, 0.929258
2.08984, 3.46256, -1.15062
-0.567353, 0.555058, -0.917133
-0.642896, 2.4692, -1.3783
-0.482051, -0.00463353, -0.15939
-1.07491, 0.0381609, 1.5075
0.397351, -0.310624, 1.24957
-0.220563, 0.590763, -0.38207
-1.65381, 1.46513, 1.30873
0.474815, 0.266521, 0.909248
3.71063, -2.40635, -0.60846
0.0563736, 0.396265, 0.234086
0.227596, 0.64856, -0.155787
-1.11638, -0.637576, -0.0453833
0.020862, -1.00506, 0.725059
-0.279355, -0.295596, -0.914081
1.32854, -0.401005, -1.4807
-0.0607863, -0.421263, -0.522575
-1.94362, -0.534924, 0.994925
0.462408, 0.700257, 0.18873
-0.663339, 1.48406, -0.14771
0.316828, -0.227106, 1.58194
-0.0454096, 0.167559, -0.329544
0.622212, 1.31248, -1.79375
-0.848229, -1.33084, 2.09735
-1.48512, 2.32833, 0.83963
-0.223478, -1.78552, 0.885687
0.487656, 0.798091, 0.385174
0.523015, -0.971163, -0.337251
0.00353661, 0.592853, -1.75508
-0.367006, 0.0580442, -0.346147
-0.767688, -0.197457, 0.485634
1.16478, 1.15383, -0.191907
-1.66365, -5.28357, 3.12041
-0.785769, 1.39628, 1.06478
-0.522882, 1.08534, -0.0942463
1.19426, 0.616007, -0.588135
-0.598526, -0.761095, -0.990103
-0.33858, -0.984997, -0.223436
-0.769731, 0.0539726, 0.35367
0.00776171, 0.46526, -0.498988
-0.14758, 0.537795, 0.828559
-2.18307, 1.13025, -0.271733
0.645004, 0.23361, -0.698718
-0.847154, 0.0199688, 0.313368
0.894513, -0.284077, -2.43371
0.0126194, 0.495152, -0.547354
0.0742655, 0.60593, -0.334282
0.187036, -0.63297, 0.985397
-0.0688726, 0.552243, 1.24164
-0.558489, 0.582893, 0.386841
0.854382, 0.347228, -0.34857
-1.15457, 1.26902, -0.574672
0.851842, -0.670496, -0.0478426
0.179792, -1.00221, 0.168522
0.121016, -0.218834, 0.478724
2.12548, 0.638857, 0.180209
0.400154, -0.388786, 0.159085
-0.861836, 1.02131, -0.673397
0.578764, -0.0877233, 0.393975
0.661051, -0.660178, 0.898665
0.152114, 1.35807, 0.508984
-0.389514, 1.23662, 0.987615
-2.06188, 0.452893, -0.562838
0.18506, -0.603046, 0.565203
-0.0556648, 0.121609, -0.585243
-1.10135, -2.39281, 1.02463
-0.310949, 0.445465, -1.93423
-2.1028, 0.609877, 3.29743
0.325396, -0.496867, 0.190278
-1.20839, -0.0884526, 0.520048
0.73358, -0.827845, -0.0757241
0.26891, 0.00857476, -1.19485
-0.280153, 0.0325008, 0.231326
0.0437649, 0.359615, -0.40776
0.646078, -0.805764, -0.043219
-0.13737, -0.215218, 0.246581
1.40968, -0.220119, 0.522702
-0.807133, -1.07526, -0.238798
0.873665, 0.0718086, -0.21765
-0.0424667, 0.366086, -1.36033
0.611241, -1.71322, 1.44826
-0.676913, -1.8138, -0.0304355
-0.0017882, 0.350663, 0.388088
0.861142, 0.608192, -1.8962
-2.82837, 0.600662, 0.923924
1.24182, 1.24525, 1.2684
-0.555101, -0.129768, 0.266914
0.95913, 0.891328, 0.517242
1.76534, 2.46253, -1.4934
0.746592, -1.03201, 1.07244
1.92503, -1.03358, -0.000879621
-0.215859, -0.464348, 0.472594
-1.89675, -0.536216, -1.02695
0.0227195, -0.560278, 2.81699
0.315357, -1.42181, -1.79539
1.11687, 0.559838, -0.0808316
0.228568, -0.555105, 0.713702
2.1416, 0.07528, 0.146285
0.968007, 1.27196, 1.22051
0.820318, 0.405053, 0.557782
1.05605, -0.473671, -1.21057
-0.923835, 1.23025, -0.290406
0.812981, 0.770672, -1.64977
1.02281, -1.13425, -0.440808
0.538599, 0.0740414, -0.236001
-0.365753, 0.188101, 0.336753
-1.08443, 2.05978, 0.320205
-0.0958331, 0.829721, -1.07415
0.0239139, 0.453868, 1.07415
0.462712, 0.615153, -1.84616
-0.235285, -0.276056, 1.05901
-0.438887, 0.610132, -0.0666978
0.180463, 0.77607, 0.440646
-1.22962, 1.72979, -0.398546
-0.713175, 0.588132, -0.030536
-0.19831, 0.985928, -1.26918
0.426675, 0.796587, -1.59024
0.447369, -0.902703, 1.30767
-0.398629, 0.411981, -0.25379
1.13501, -1.46078, 0.907788
0.460296, -0.641099, 1.40251
-0.112546, 0.104818, -0.120426
0.135167, -0.637679, 0.0128511
0.178932, -0.479304, 0.516463
0.0759776, -1.1649, -0.279554
-0.0127788, -1.36573, -0.226792
0.0784856, -0.623915, 0.449394
0.644571, -0.0484703, -1.53355
-1.98176, 1.62965, 0.878173
0.239514, 0.173825, 0.720544
0.127403, 2.03466, -1.75096
1.52927, 2.23074, -0.428444
-0.478161, -1.30343, -0.472405
-1.42384, 1.98777, -2.4099
0.659635, 0.489013, -0.308486
0.684446, 0.388869, -0.784759
0.531712, 0.380298, -0.654885
0.963824, 2.1781, -0.309807
-1.27147, 1.01348, -0.0377818
-0.138225, -0.387227, 0.773036
-0.435668, -0.27671, 0.240535
-1.07496, -1.93723, 0.0147326
0.774794, 0.846181, 0.181249
-0.428121, -0.214974, -1.09712
-0.979704, -0.147862, -1.00357
0.692772, 2.2753, -2.15351
0.960363, 0.21152, 0.49284
-0.807801, 2.28992, -0.652725
0.399087, -0.630625, 0.919857
-0.824524, 1.13914, 1.03396
0.101084, 0.14211, -0.306878
-0.0835314, 0.671303, 0.406516
-1.95139, -0.895148, -0.911435
-0.98011, 0.443284, 2.1009
0.986347, -0.347725, 0.0896101
-1.51835, 0.537562, 0.0689269
-0.224208, -0.349036, -0.872807
0.62652, -0.0656305, 0.790832
-3.17627, 0.982129, -3.1337
-0.0733156, 0.0547078, -0.0375947
0.0283586, -0.594135, 0.255749
-1.20499, -0.270285, -0.375528
-0.83583, -1.39124, -2.13467
0.121707, -0.194701, -0.889067
-0.619947, -2.53068, 0.646389
1.99335, -0.647486, 0.460599
0.306524, 0.60886, -0.0248153
-0.57253, 0.569505, 1.35622
0.648658, 1.01353, 0.375352
2.42412, 1.31361, -0.941385
0.0727282, 0.103624, -0.544008
-0.561042, 0.0420923, 1.05182
-0.0409032, -0.60819, -0.238428
-0.908106, 1.32029, -0.191923
1.65824, -1.92662, -1.24158
-0.892384, 0.434852, 0.289851
-0.644534, -2.74159, 1.37936
1.0099, -0.0629383, 0.391477
-2.32994, 1.10066, -0.462127
-0.851228, 0.0417004, -0.454091
1.13754, -0.543179, -0.597655
1.00585, -2.92138, -0.344557
-0.976944, 0.0703825, -0.0200409
0.819037, 0.895152, -0.162523
-0.406497, 1.2404, 0.129711
0.724279, 0.644087, -0.242175
-0.364068, -0.461098, 1.32411
0.779117, -0.613208, -0.142669
-0.311447, -1.73933, -0.238899
0.330993, 1.62971, -1.08691
1.44262, 2.55652, -3.32732
-0.884238, 0.35893, 0.705325
0.807253, -0.610481, -0.457132
-2.40758, -0.471026, -0.336532
0.575143, 0.521547, 0.413416
-0.294744, -0.19282, 0.354026
-0.048308, -0.218801, -0.28186
-0.898625, 0.503436, 0.241669
-0.514623, -1.01701, 1.55103
0.132759, -0.679918, -0.858868
0.122401, 1.21228, 0.385764
2.00723, 0.361532, -0.853315
1.67632, 1.54479, 0.596795
0.726403, -0.166006, 0.688094
-0.292813, -0.405755, -0.378214
-0.0767116, -0.208259, 0.672647
-1.74576, -1.10064, 0.2352
-0.333139, 0.0372946, 0.29868
0.709737, 0.341238, 0.513742
-0.731737, -0.191098, -1.50505
0.125322, -0.335245, -1.01061
-0.381601, -0.211645, -1.42412
3.13561, -2.5774, -2.78319
-0.476601, 1.00128, -0.559133
-0.105315, -0.711953, 1.02112
0.139608, -0.775341, -0.813524
1.88315, 0.389667, 0.513567
-0.0672804, -0.68869, -0.391895
-1.50593, -1.05202, -0.710249
-0.956957, 0.519616, 1.16095
0.496053, 0.806707, 0.573028
-0.114172, -0.239315, -1.7263
0.517699, 0.422111, 0.426814
-0.41177, -0.405158, -0.941916
0.228264, 0.426129, -0.279828
-0.461234, 0.714527, -0.123659
0.971174, 3.28353, -0.751282
3.63089, 0.72485, -2.64516
-0.885005, 2.56928, -3.00038
-0.574923, 0.243643, 0.0236631
-0.87656, -0.704683, 0.107944
-1.16026, -0.274383, -0.145485
0.22189, -0.100317, -0.360189
0.763253, -2.06796, 1.9956
0.512246, 0.238199, 1.62188
0.0357651, 0.280134, 0.329002
0.398934, 0.113307, -2.25675
-0.992463, -0.227777, 0.787605
-0.90306, 0.292399, 0.271907
-0.14033, -0.344651, -0.525394
-2.87719, 0.0484113, 0.610209
1.93711, -1.53361, -2.22885
-0.249836, -0.60211, -0.31588
-0.669655, 3.06875, 0.141005
1.30448, -1.15005, 0.145131
0.884633, -0.806843, -0.594698
0.352408, -2.62249, 0.0819079
-1.93505, -0.421593, -1.98659
-0.0380575, 0.512786, -0.501884
-0.600508, -0.344198, 0.954496
0.40108, -0.838791, -2.21585
1.5467, -0.433155, -0.165214
0.161217, -1.47338, 0.339437
-2.27786, 3.1636, 1.20015
-0.208939, -0.185071, 0.106599
-0.263123, -0.153539, 0.0740494
1.27472, 1.36948, -0.876166
0.515709, -0.0942807, 0.895736
-0.176091, 1.67587, 0.354863
0.344306, -0.0758094, -0.241584
0.51745, -0.980682, 0.621053
-0.313095, -0.772237, -1.00082
0.563775, -0.0375592, 0.487226
0.360658, 1.06137, 0.813131
1.53328, -0.446338, 0.697788
0.405625, 0.357832, 0.286076
0.283262, -0.275395, 0.3496
2.14526, -0.789866, -1.08232
-0.112052, -0.0154641, 0.162903
-0.456829, -1.33468, 0.529242
-0.844716, 0.491495, -0.212598
0.556526, 0.0626581, -2.21837
-0.130573, -0.471825, -0.0593586
-1.18341, -0.591814, 1.07957
-0.447798, -0.211211, -0.176784
1.10614, -1.88326, 1.0338
0.133363, -1.25822, 0.566219
-0.129793, -1.88949, -0.237337
0.810062, -1.18609, 0.542424
-0.1702, 0.40758, 1.29259
-0.374635, -0.00962185, 0.234007
0.152044, -1.62167, -0.654976
-0.890292, -0.0135449, -0.793048
1.12896, 1.29742, 1.31782
0.291264, -0.0950785, 0.0834532
-1.13322, -0.919608, -0.0502561
0.779234, -0.358103, -0.727835
-0.660906, 0.280604, 1.27144
-0.738122, 1.17713, -0.333496
1.13598, 1.33285, -0.543788
0.760074, 0.255867, -0.146887
-1.06617, 0.944904, -1.94074
-0.694624, 0.0100512, -0.0595251
-0.13086, 2.05682, 1.31351
-0.884743, 0.0137086, 0.0639602
0.565955, -0.0632486, 1.431
0.702887, -0.00956127, 0.625821
0.750055, 0.459072, -1.09607
0.195269, 0.413201, -0.511921
1.44976, -0.532147, 2.65246
0.0731253, 0.299149, -0.792074
-0.474925, 0.477427, -0.661677
0.430838, -0.460992, -0.74644
-1.45425, 0.410489, -0.232356
-0.318384, -0.455094, 0.412958
-0.167705, 0.656579, -0.757097
-0.376334, -0.130235, -0.125848
-0.250356, 0.343215, 0.335935
1.5853, 0.580252, 0.466048
-0.0513113, -1.70055, 0.389173
0.206371, -0.442944, -0.411233
-1.53855, -0.591083, -0.0516848
1.83067, -0.456205, -0.332524
-0.0742803, -0.324266, -0.18927
0.207088, 1.61068, -1.8478
-0.216897, 0.283943, 0.737957
-0.66421, -0.0811732, 1.36436
-0.0501445, -0.567986, -0.593029
-0.975269, 0.195499, -1.4923
-0.0478228, 0.157696, -0.693905
0.437534, -0.0832652, 1.22442
-0.0122358, -0.503161, -1.4373
-0.306935, -1.48847, 0.922075
0.0636245, 1.02269, -1.49671
-0.560206, 0.980684, 2.11094
0.166432, 0.0583898, -1.18266
0.20855, 1.1988, -0.971461
1.2782, 0.287281, 0.780292
-1.33821, -0.534846, -0.484384
-0.27357, 1.46195, 0.144102
-0.627867, -0.756054, -1.87261
-0.211274, 0.363943, -0.972352
0.681676, 0.210495, 0.419244
-1.07951, 0.259374, 0.439085
2.19905, 0.505469, -0.0165363
-0.129706, -1.66213, -1.37567
-0.589914, -1.00642, 0.81413
-1.01252, -0.211204, 0.711911
0.333283, -0.10523, -1.81451
-0.00920354, 0.518493, -0.388574
1.42968, -1.063, 1.25859
-0.781042, -0.898053, 0.251287
0.860466, 1.01876, 1.57966
0.0501495, -0.07317, 0.358252
-0.0601864, -0.118797, -0.00529899
1.16282, 2.30539, 2.50523
0.529639, 0.361186, -0.789401
-0.227237, -0.498097, -0.0033988
-0.124002, -0.187769, -0.150903
0.391073, 2.95228, -1.51364
1.52823, -0.225157, 0.0252935
-0.498754, -0.686849, 1.11641
0.0555622, 0.296698, -0.864265
-1.12256, 0.104583, -0.455316
-0.769163, 0.768484, -0.50839
-0.994342, -0.166199, 0.996975
-0.28342, 0.149199, 0.178125
-0.451917, -1.54631, 1.36081
0.294521, 0.950422, -0.692406
0.39279, -0.0484688, 0.647918
0.422119, 0.00435049, -0.763746
-0.886929, -0.477793, -0.225437
1.01171, 0.0688567, -0.457266
0.176758, -0.0269034, -0.374443
-0.0183907, -0.532071, 0.32717
-0.0461652, -0.244261, 0.154893
1.08271, -0.520915, 0.892223
-0.92259, -0.248788, -0.706628
-1.00776, 0.978822, -0.218046
0.162791, -3.48755, -0.309217
0.106669, -0.661744, -0.314163
-0.958602, 0.999522, 0.0553779
0.0910039, 2.71918, -0.465868
0.968402, 0.729826, -0.752081
0.378487, -1.58022, -0.4915
-0.034687, -0.0790912, -0.122238
-0.766122, 1.00042, 1.25519
-0.95417, 0.270722, 0.193891
-0.90246, -0.0877823, 0.608592
-0.277552, 1.61823, 0.551839
0.384351, 1.60801, 0.982357
2.35646, -0.0749669, -0.877459
1.33058, -0.336328, -1.34524
1.63393, 0.323248, 1.38145
0.961114, -0.260727, 0.406909
0.0895163, -0.377393, 0.241557
0.414278, 1.05246, -0.378893
1.01916, -0.400683, 0.211505
-0.20209, 0.333739, -0.95982
-0.201182, 0.538883, 0.594119
0.195174, 0.365855, 1.76182
0.404138, -0.771751, -0.558856
-0.338818, 0.147169, -2.00369
1.35312, 0.283891, -1.1938
0.58152, -0.842935, -0.628832
0.676577, -0.734679, 1.30594
1.67545, -2.65249, 1.88832
-0.0453361, -1.29085, -0.279082
-0.101888, -0.617655, -0.788995
-0.630242, -0.798455, -0.144022
0.431623, 0.197945, 0.505405
0.223514, -2.20305, 0.691435
-0.00554006, -0.00413039, -0.0971197
0.801656, -0.230247, 0.726625
0.657588, 0.884015, 0.807021
-0.518602, 0.0281366, -0.962831
0.37335, 0.15638, -0.337598
4.83267, 0.256568, -0.546297
0.224541, -0.362045, -0.0237969
-0.524002, 0.0242825, 0.324024
0.188246, -0.181903, -0.477379
0.793993, -0.0145704, 0.579611
0.0926549, -0.703639, -0.157609
0.947284, -0.535481, 1.0905
0.0850812, -1.46687, -0.274199
-0.339955, 0.138724, 0.292637
-0.772155, 1.53007, -0.37675
0.0740702, 1.15379, 0.484883
-0.782961, 0.860088, -0.22349
1.06608, 0.941231, -0.196805
-1.01312, -0.0414258, 0.455134
0.178299, 0.130401, -0.424155
0.217379, -0.106748, 1.2167
0.954766, -1.77509, -1.02096
0.731644, 0.663091, 0.413183
0.354875, -0.247198, -1.57533
0.0888263, 1.19647, 2.83876
0.34638, -1.23988, 0.957347
-0.425961, 1.47043, -1.03017
-0.127438, 0.330419, 0.119918
-1.63128, -0.0778895, 0.720334
-0.122541, 0.643658, -1.09031
0.564402, -0.889888, 1.08353
-0.465262, 1.3246, 0.61715
-1.28799, -2.17622, 0.0245035
