-0.696461, -0.236643, -1.39902
0.336184, -0.307582, -0.293585
0.112412, -0.097129, -0.0732074
-1.05886, 0.894818, 2.59925
0.362979, -0.044211, -0.0652273
1.06101, 0.4229, 0.0839485
0.332715, 0.277992, -1.09878
0.4023, -0.264739, -0.286113
-0.126081, 2.28648, 0.0168993
0.860523, 0.164995, -0.11399
-1.08945, 1.28639, 0.169474
-0.0271529, -0.198589, 1.23152
0.327565, -1.29071, 1.53287
-0.872286, 0.0853809, 0.140591
-0.0709779, -0.158986, 0.0581191
-0.00835723, -0.269633, -0.145172
0.522554, 0.654692, -0.441928
1.94921, -1.25486, -1.5832
-0.107808, 0.52681, 0.431686
-2.36533, 1.51563, -0.933184
0.0359765, 0.00838584, -1.28363
-0.766663, 0.397043, 1.11932
-1.35939, -0.0332154, 0.553029
-0.4328, 0.952814, -1.71563
0.54284, -1.19836, 0.767133
-0.0268085, -0.653087, -0.261316
-0.997054, -2.46748, -0.910544
-0.835724, 0.123619, 0.232526
1.40123, -0.440573, -0.922549
0.688536, 0.834588, 0.476375
-2.02275, -0.089397, -2.60895
-1.37182, -0.161049, -0.340734
-0.144743, -0.256252, 0.19591
0.719187, -1.16262, -1.5254
-0.952414, 1.57388, -1.81159
0.329199, 0.311627, -1.07242
-0.292998, 0.592009, 0.856457
-1.41931, 0.556352, -0.166535
-0.576062, -0.597647, -0.358046
1.90952, -0.225039, -1.75289
0.861661, 2.28966, 1.73218
-1.10235, 0.630023, -0.341684
0.78104, -0.31288, -0.819317
0.17106, 0.443952, 0.414711
0.318151, -0.584166, -0.547663
-1.67896, 0.399878, 1.69135
0.951225, -0.535908, -0.118423
-1.10423, -0.384403, 0.291975
-3.7607, -1.96534, -2.78873
-0.349389, -1.2365, 0.0849923
-0.561426, -2.82977, -1.13311
0.000196051, 0.0331513, -0.0258923
0.558534, -0.378293, -0.0948181
0.405947, 0.438849, 0.114047
0.461632, 0.303365, -0.358288
0.241008, -0.947189, -0.0167596
-0.0434343, 0.297442, 1.12821
-1.97591, 1.04867, -0.291281
-0.348545, 0.521837, -0.874149
-1.28185, -3.1032, 1.1568
0.758228, 0.927671, 0.140336
-0.634882, 0.0440378, -0.464489
0.204384, -2.49993, 0.356744
0.48178, 0.193277, -0.183235
-0.14998, -0.432023, -0.997172
0.785809, 0.815718, -0.369926
0.206685, 0.623746, 0.957661
0.59208, -0.335674, 0.695829
0.936205, -0.256781, -1.40481
1.35569, 0.256696, 1.30362
0.598274, -0.744908, 0.69065
0.0880434, -0.817691, 1.68828
1.75325, 0.55881, -0.48278
-3.38892, 1.41296, -0.0175456
0.439373, -0.948714, 0.204049
0.400014, 0.176879, -0.598358
0.149248, 0.125724, 3.59555
0.0805527, 0.0694244, 0.303078
-0.397424, 0.758275, 2.18886
0.397394, 1.3131, 0.193037
0.252863, 2.54463, 1.08692
1.22854, -0.0721733, 0.85479
-0.256073, 1.62628, -0.630326
-0.275415, 1.6418, -2.74039
0.601834, 0.176807, 0.531192
1.36432, -0.50859, -1.61587
0.169422, 1.74173, 0.96741
-2.33088, -0.882429, -0.599079
-0.352269, -0.854261, 0.877724
0.697446, -0.435463, 0.107055
0.683007, 0.720412, 1.46116
-0.256282, -1.25444, 1.22926
-0.785823, 0.735842, -0.109444
-0.179774, 0.0574523, -0.422496
-0.668821, 0.0249529, -1.21359
-0.229763, 0.323002, 0.103195
-0.930217, 0.452859, -0.242346
-0.444659, -0.0397117, 0.392571
1.74712, -0.722455, 1.41565
-0.0749202, 0.915556, -1.35925
0.651449, 0.841494, 0.427709
-0.870688, 0.383986, 0.534111
0.145869, 1.01239, 0.0692929
0.392176, -1.01608, 0.673282
1.28237, 0.771757, 2.59622
0.594505, 1.47088, -0.492998
1.27222, 0.581755, -0.303387
1.07481, 0.61028, 1.15515
-0.306087, -0.0817009, -0.190904
1.73693, -0.0645805, 1.23743
-0.542713, -0.396875, 1.01456
0.57405, 1.79593, -3.84999
-0.283839, -0.478509, -0.0864786
0.332792, 0.0799022, -0.441035
-0.228011, 0.0952028, -0.790345
-0.391243, 0.57599, 0.0482332
0.879266, 0.634, -2.09923
0.473696, 0.421003, 0.532334
-1.94035, 0.281118, 0.397452
0.12974, -0.246248, 0.0225003
-0.380224, 0.243877, -0.550972
-0.284513, 0.290662, 0.475403
0.793513, -0.655121, -0.313324
-0.450907, 0.0230457, 1.15094
0.791608, 1.13019, -0.963352
-0.154211, 0.53069, -0.265963
2.99574, 0.396144, 2.25765
-0.213004, -0.0157873, -0.707902
-1.05688, 1.46733, -0.485986
-0.432037, 1.17698, -0.126787
-0.632491, 0.0560772, -1.96147
-1.4803, 0.603446, -0.911341
0.927559, 1.05039, -1.38824
0.342163, -0.3988, -1.13918
-1.82423, -0.39478, -1.14347
-0.00831824, -0.780571, -0.157954
-0.284045, -2.00586, 0.0646244
0.162421, 0.0395962, -0.288554
2.04627, 0.110699, -1.81799
0.671966, 0.596002, -1.34255
0.160412, -0.0534524, 0.308584
-0.771377, -0.151216, -1.02075
-0.862951, -0.814181, -0.832726
-0.725971, -0.689801, 0.0699352
-0.654369, -0.250589, 0.688304
-2.35858, -1.18047, 1.20954
-0.655781, 0.403988, -0.641352
-0.801276, -1.06761, 1.42233
0.628719, -1.57801, 1.74494
0.251704, -0.414731, 0.530529
-0.427103, -0.348975, 1.03666
-1.01593, -0.693981, 0.719646
-0.531606, 2.69943, 0.617156
-0.275389, -1.17374, 1.38282
-0.0655572, 1.03116, 1.00231
-0.226307, -1.52262, -0.0651462
-0.28096, -1.10766, -0.0954719
-0.147345, -0.65173, 0.10059
-0.988495, -0.750817, -0.349734
0.85599, 0.857171, -3.25579
0.54333, -0.150073, -0.136826
0.592049, -1.13884, 0.0645896
2.16376, 0.919905, 2.3996
-2.75249, -1.60306, 2.79838
0.701584, -0.370342, 0.252354
-0.188605, 1.17546, -0.661295
0.228925, -0.407638, -0.411226
0.529501, -0.276982, 1.28916
0.372164, -0.398223, -0.807334
1.32751, -0.202287, 2.03838
-0.909094, -0.663627, 0.329135
0.271057, 0.778914, 0.144412
1.891, 1.61375, -0.524272
0.471468, 0.572576, -0.17102
-0.0635184, 0.360045, -0.525835
0.086792, 0.670824, -0.727189
0.922155, -0.596582, -0.178362
-0.333298, -1.02971, -0.731287
0.665335, -0.480517, 0.652422
0.605883, -0.642044, 0.141601
0.1716, -0.004471, 1.4632
0.393147, -0.00273109, 0.560547
1.40192, -0.764397, -0.665253
0.728749, -0.0167862, 0.250002
-0.47289, -0.832199, 0.478571
-0.0348836, 0.300174, 0.298244
0.26843, 1.07545, 0.267703
0.692123, 0.131366, -0.167376
-0.561529, 0.0435093, -0.58145
-0.859908, 0.754274, -0.57243
0.822518, -2.15013, -0.400722
-0.221895, -0.160611, -1.43141
0.622281, -0.208707, -0.925505
-1.6205, -0.377831, 0.0654155
-0.0676548, -0.352094, 0.33615
0.471629, -1.47666, -0.720611
-0.0738261, -0.501103, 0.37465
0.458067, -1.28283, 1.29416
-0.662688, -1.38216, 0.650897
0.298467, -0.504202, 0.417966
-3.79044, -3.88033, -2.44304
0.503637, -0.731051, 0.244975
1.55514, 0.0696383, -0.389595
1.0974, 0.180617, 0.334183
-0.547977, 2.19986, -1.51248
2.22309, 0.670834, -1.16667
0.0918937, 0.553484, 0.00599289
-0.215231, 1.1198, -0.888792
-0.339971, -0.428577, -1.20713
1.38736, -1.32324, 0.738923
0.151011, 0.140314, 0.583418
0.769264, -1.13113, -0.0631948
1.76505, 0.792121, 0.796426
-0.321117, -0.945366, 0.285315
0.0765097, 0.0466034, 0.483326
-1.08298, 0.717773, 0.434863
0.85681, 1.66455, -2.25178
0.529377, -0.513543, -0.0596149
-1.21123, 0.365385, 0.146685
-0.560633, 1.44672, -0.254361
-0.979432, 0.187428, 0.516811
0.804298, -1.18557, -0.169388
-2.61031, 1.6475, 0.983759
-0.582073, -0.72226, -0.674792
-0.474342, 0.0534854, 0.0183151
0.918272, -0.702258, 0.60021
0.211675, -1.1193, 1.22746
-0.102898, -0.173934, 0.685794
0.615861, 0.129182, 1.19978
0.532636, -0.0285543, 0.0209177
-0.0776373, -0.146545, -0.194366
0.499505, -0.672069, -0.0446762
-0.479638, 0.10316, 1.75801
0.275501, 1.71124, -0.200174
1.17196, -0.32682, -0.766663
-1.60016, -0.933734, -0.705481
-1.06584, 0.390038, -2.27591
0.0766421, -0.104944, 1.18561
-1.10239, 0.369279, -0.336533
1.39376, -1.02063, 0.312521
-1.29895, 0.0571614, -0.883544
-0.130655, -0.337427, -1.06699
-0.1152, 1.60919, 0.782159
-0.948181, -0.982675, 0.184103
-0.152595, 0.947258, 0.818181
0.388107, -1.70956, 0.92581
-0.71577, 0.656913, 0.850078
0.84472, 0.675454, 0.413302
-0.524162, 1.34623, -0.288219
3.25919, 0.361986, -0.197767
1.41854, -0.309191, 0.179043
0.18276, 1.41066, -1.39641
0.018314, -0.640555, 1.71906
0.0392266, 0.478982, -0.515645
0.611832, -2.06667, -2.59326
-0.193812, 0.191396, 0.481577
-0.980948, -0.161594, 0.9495
1.35982, 0.194436, 0.366399
1.46954, -0.297402, 1.36895
-0.313925, -0.806461, -0.386424
0.146123, 0.286795, 0.856227
-0.00451041, -0.650611, 0.24362
-0.852657, 1.50498, 0.266583
0.459961, -0.859815, 0.732616
-0.193081, -0.689295, -0.324751
-0.601405, -0.202159, -0.22296
-3.57189, -3.40927, 0.281024
0.367794, 0.993344, -1.30479
0.555509, 0.363963, 1.56765
1.45429, 2.36699, 2.1213
-1.44255, 0.41239, -0.788771
-1.04959, 1.93894, 0.876423
0.77258, 1.08922, -0.283429
0.356462, -0.315026, -0.0247718
-2.26077, -0.823284, 0.188104
0.288061, 0.375825, -0.562568
-0.509526, -0.0609062, 0.864661
1.11984, -1.67743, 0.30103
0.212061, 1.4661, 1.34572
-0.360077, 1.75937, 0.189003
0.48499, 0.456366, -0.329309
-0.622755, -1.26541, -0.462695
0.214041, -1.35353, 0.987924
-1.7983, -0.0547926, -0.616422
0.487232, -0.495736, -1.02362
0.630412, -0.00287829, -0.508795
-0.566486, -0.492994, -0.0846345
-1.39875, -0.988549, 1.01706
-1.38819, -0.631791, 0.501735
-0.0701446, -1.03169, 0.336773
-1.13031, 0.928631, -0.797408
0.43497, -0.415529, -0.153126
-0.0784619, -1.67395, -0.524603
-0.958362, 0.374329, 0.218518
0.313287, -0.306333, -0.285048
-0.436343, 0.0541088, -0.49867
-1.07683, -0.454249, -0.144133
0.105981, -0.277188, -0.359912
-2.03466, -1.531, 1.01923
0.158632, 0.179159, -0.716615
1.13195, -0.264437, -0.524588
-0.309482, -0.286887, 1.01937
-0.0180933, 0.55323, 0.404756
0.214259, 1.4622, 0.443235
-1.81578, -0.231716, -0.7409
-0.71396, 0.70571, 0.257724
0.615217, 1.59453, 1.47401
-2.63273, 0.280364, -0.00192051
2.00393, 1.2804, 0.758669
-0.323178, -0.768333, -0.859658
-0.483479, 1.64146, 0.83427
-0.724365, 0.572948, -0.0658428
-0.257431, -1.41475, 0.218872
-0.377481, 0.664213, -1.38858
-1.45389, 1.25072, -0.398276
-0.459416, -0.999536, -1.20256
-0.495205, 0.786182, 0.255839
0.106071, -0.839013, 2.28251
0.113563, 0.189314, 0.198987
-0.892682, -0.103239, 1.00467
0.583382, -0.520739, 0.60361
1.18639, -2.21412, 1.75022
-0.877126, -0.229006, 1.38611
-0.976318, 0.0617499, 2.3511
-0.599703, -0.674687, -0.289762
0.113761, 0.342568, -0.853047
0.49441, -0.161956, -2.97217
-1.56559, -0.589355, 0.874612
-0.570866, -0.472721, 0.136914
-0.5181, -0.360186, 0.0613071
-0.790739, 0.13365, -0.217017
0.395235, 0.0957894, 0.855837
-0.335521, -1.18749, 2.03916
0.833566, 2.42482, -0.567629
1.07859, -0.332232, 0.765623
-0.704426, -0.450639, 1.76472
-0.278127, -1.00984, 0.378794
-2.25125, -1.53995, 0.952423
0.375914, 0.448462, 0.997025
3.21894, -1.60752, 2.44177
-0.0573546, 1.1865, -1.15289
-0.261359, 0.330674, -1.15923
-0.513003, 1.26724, 0.662869
0.0632163, 1.39011, -0.568858
-0.887254, -1.02552, 0.0384574
0.228295, -0.697563, -0.48076
-1.09647, -0.501866, -0.446892
-0.0980863, 0.626678, 0.514559
-0.160653, -0.574725, -0.0472318
0.0640981, -0.240064, 0.836734
0.132646, -1.32445, 0.175288
-1.92327, 0.42096, -0.677826
-0.00583228, -1.36111, -0.909776
0.76992, -1.79815, 1.82061
0.113403, -0.478189, 1.2797
-0.0222217, 0.640969, -1.7077
-0.504329, 0.20081, -1.01505
-0.454211, -0.410844, 0.499244
1.49624, 0.178011, 1.69629
2.40564, 1.21791, 1.89818
1.46535, 0.768441, 0.612558
0.799365, -0.884445, 0.780611
-0.551778, 0.328664, -1.68387
-0.517366, 0.36717, 1.49397
-0.41107, 0.340329, 0.77934
0.55235, 0.266091, -0.921286
0.0721875, 1.46306, 1.12353
-0.336216, -0.46643, 0.952908
0.0881444, 0.973398, 0.156724
-0.425613, 0.251568, 0.679451
1.26524, -0.916169, 0.0403887
-0.957495, 0.611634, -1.07085
-0.0800078, -0.463503, -0.565608
-0.887474, 0.518799, 0.145512
-0.428273, 0.313085, -0.310189
2.08446, 0.247268, -0.0449789
0.288547, 0.842605, 0.0870239
0.715466, 1.17579, -0.191075
-0.177111, -0.439963, -0.308041
-1.58944, -0.765141, 1.47956
0.0831189, 0.11515, -0.036587
0.151656, -0.616518, 0.418245
-0.527392, 0.536568, -0.0885244
0.746203, -0.905119, 1.18418
0.157921, -0.574283, 0.510261
1.75734, -0.955749, -0.952317
-0.323773, -0.470664, 0.512813
0.308962, 0.515044, 1.7498
0.237208, -0.575057, -0.823421
1.42184, 0.829644, -0.728749
0.584687, -0.23488, 0.489946
-0.171378, 0.156454, -0.822535
-0.0652228, 0.0534588, 2.63428
0.609896, -1.36365, 2.49031
0.359268, -1.43829, 0.779688
-0.415047, 1.36875, -1.14378
-0.180611, 0.307679, 1.26609
1.3801, -0.235305, 0.484622
-0.0791806, -0.159304, 0.724006
0.940706, 0.0222597, 1.01468
0.797238, -0.37845, 0.64027
-0.508243, -0.385153, 0.234835
0.35735, 1.17037, -0.0130152
1.33626, -0.46479, -0.27921
0.420773, 1.65821, 0.579718
0.803481, -0.853177, -1.08767
-1.36192, -0.539957, -0.120416
1.15447, -0.986665, 0.610626
1.59061, -0.550421, -0.854462
-1.10472, 0.576944, 0.112883
1.67666, -1.69005, -1.68168
0.865762, -0.336747, -0.0472746
1.03266, -0.26816, -1.62004
0.0770505, -0.358801, -0.206957
0.464414, 0.194019, -0.52783
-1.86066, -1.30626, 1.12368
-0.00688263, -0.695428, 0.159885
-0.00451643, 0.226993, 0.943983
0.590624, 0.137306, 0.404061
0.21872, -0.403144, -0.0506789
0.829606, -0.00681104, 0.0318349
-0.533281, -0.339154, 0.954727
-1.44605, -1.14991, -0.971027
-0.0836161, 0.855491, -1.06719
1.33146, -0.538459, 0.7536
-1.76779, 0.942777, -0.106399
1.57926, -0.231116, -0.0159022
-0.546158, -0.909184, -0.19566
-1.05014, 1.42806, -0.343889
1.3567, 0.534121, -0.616165
2.20213, 0.691745, -1.22237
0.723263, -0.923831, -2.82238
-1.16267, 0.987046, 1.89199
0.893617, -0.457972, -0.314038
0.00875051, 0.511908, -0.638115
1.33109, -0.834578, 0.298235
-0.208878, 0.223471, -0.770042
1.27766, -1.90491, 0.682708
-0.660365, -0.808167, 0.211758
-0.756912, 1.23977, -0.469773
0.053001, 0.857005, -1.77887
0.119498, -0.676178, 0.297817
-0.463405, -1.11455, 0.277342
0.0533753, -0.337685, -2.96787
-0.620662, -0.194869, -0.120557
-0.172573, -0.530377, -0.488363
0.150863, 0.432337, -0.23662
0.774028, -0.29139, -0.337677
-1.00551, 1.34831, -0.501268
-0.0567666, -0.0729419, 1.03338
0.212429, -0.0355594, 0.227767
1.17488, -0.0208599, 0.159733
-1.78472, 1.24578, 0.24826
-1.12797, 0.598572, -1.29591
-0.780037, 0.134991, -0.207078
0.463303, 0.108287, 0.718095
-1.2189, 2.52889, 1.08534
0.874605, 0.4932, -2.27256
0.678412, -1.12898, -0.56844
0.0575173, 0.0395278, -2.5066
-0.733073, 0.594709, -0.373282
-0.542842, -1.85592, 0.574915
0.334053, 0.993032, -0.0486379
1.18281, -1.63868, 0.101193
-0.988948, -0.39509, 0.924493
-0.812565, 2.38094, -1.25867
-0.38904, 0.218143, 1.91201
0.0562034, 0.128644, 0.227862
-1.13928, 2.42487, -0.276408
0.84562, 0.280637, 0.743777
0.20226, -0.188298, -0.47245
-0.229943, 1.2496, 1.39571
0.545624, 1.32568, -0.61228
-0.873338, -1.04334, 0.0958549
-0.350688, -0.0626083, -0.394697
-0.167894, 0.857279, -0.738468
0.725949, -1.38425, 0.603411
-1.8703, -1.33508, -0.371508
-0.965802, 0.480868, 1.43632
-2.02934, -1.65794, 1.32547
-0.0576287, -0.862166, 0.00988969
0.936735, 0.292777, -0.1196
-0.467291, 0.668001, -0.594503
0.793419, -2.97195, 1.3207
0.77373, 0.530724, 0.995394
-1.4086, 0.712236, 0.673887
0.250741, 1.7403, 1.065
1.04668, -0.633593, 1.08999
0.0525807, -1.37199, -0.653315
-0.549435, -0.207684, 0.435495
0.460433, 1.32673, 0.365584
-1.124, 0.929057, 0.972368
-0.783509, 1.216, -0.297252
-2.44739, 0.0831341, -0.621626
-0.575463, -0.554828, -1.50075
-0.483289, 0.273448, -0.110423
2.44107, -0.201704, 0.00318502
0.462889, -0.224339, -0.0279683
-0.818853, -0.956399, 1.0839
0.782679, 0.0398082, -2.24256
0.282403, -0.978072, -0.631217
-1.05555, -0.530018, 0.543143
-0.544579, -0.983486, 0.915297
0.105331, 0.299386, -0.138895
-0.230763, 0.488049, -1.03228
-0.593923, 0.657996, -0.98417
-1.69173, -3.03222, -1.92003
-0.16704, 2.89081, 0.474686
-0.667152, -2.11172, 2.07238
-0.501011, 0.649836, 0.344769
1.50908, -0.678428, 1.62115
1.64011, -1.28008, 0.150267
-0.329965, -0.00776089, -0.1098
1.6769, -3.9839, 0.240423
0.062792, -1.06421, 0.518312
-0.572617, 0.114967, 0.0352487
-1.59307, 0.687296, -0.0028263
0.184579, 1.06381, 0.968098
1.49719, -3.01537, -0.885558
-0.183995, -2.64192, -0.745782
0.984471, 2.2564, -1.20462
1.37399, -0.238736, -0.270502
0.642474, 0.314205, -2.12392
-0.12775, -0.864265, -0.937761
1.49462, 0.28774, 1.24507
0.190176, -0.281045, -0.831353
-0.0947247, 0.958038, 0.76756
-0.275275, -0.0391483, 0.450075
0.387628, 0.446129, -0.772221
0.672617, -1.34311, 0.631145
-3.21014, 1.70129, -1.10873
-1.66013, 0.24255, -2.74857
-0.292771, 0.392072, 1.34466
-0.600284, -0.187306, 0.20855
0.261636, -0.65073, 0.721862
0.64838, 0.484719, 0.165601
-0.429054, 0.592487, 0.578207
0.0283216, -0.969829, 0.509823
-0.0908039, -1.00485, -1.04416
0.576492, 0.30403, -1.13989
-0.840324, 1.63036, 0.219153
-0.151383, 0.0226833, 0.32101
0.797452, -1.49795, -2.1482
-0.583272, -0.931958, -2.9202
1.22098, 0.164537, 0.377917
-1.08198, 1.83246, 0.0873554
-0.700968, 0.914774, -0.570512
0.918664, 1.36202, -0.408423
-0.859148, 0.319642, 0.0404336
0.589915, -0.515614, 0.68202
0.0289712, 0.370201, 0.100574
0.347394, -0.101673, -0.35011
-0.071667, -1.1108, 0.0576521
-1.16905, -0.0505505, -0.48554
-1.38177, 0.47033, 1.28076
0.679703, -0.963557, 1.40905
-0.804993, 0.931021, -0.584207
-0.428587, 0.194119, -0.676291
-1.27025, 0.308772, 1.29533
1.1383, -0.133014, 1.06108
-0.405084, -1.75902, -0.0607559
0.430934, -1.15978, -1.27348
0.50946, -0.30255, -1.40469
0.683447, 0.205446, 0.372307
-0.713302, 1.02869, 0.752335
0.663637, -0.575306, 0.591634
-1.39101, -0.68629, -0.385587
-0.0625262, 0.138507, -0.0588572
-0.120749, 0.0676086, -0.00246142
-1.18204, 0.810683, 0.238564
-0.724858, -0.49482, -1.02508
-1.44738, -0.136004, 2.38492
0.0186265, 0.882998, 0.0137077
0.0271357, 0.630619, 1.34431
0.0399275, 0.113938, -0.153145
-1.01614, 0.95116, 0.714398
-1.0794, 0.365356, -1.06915
0.0468283, 0.0203971, 1.02756
0.0307486, 0.185529, -0.057554
0.693893, -0.609292, -0.552886
-2.90316, 0.569107, 0.640263
0.0298749, 0.745225, 0.0225043
0.894414, -0.829815, -1.81998
-0.663827, -0.151218, 0.436733
0.208882, -0.888861, 4.76025
-0.00299266, 0.807643, 0.0373168
0.89374, 0.112549, -0.0501726
-1.68015, -1.07207, 0.847793
0.911799, -0.655359, -0.0370382
1.67506, 0.84968, 0.123363
-2.49784, -0.672183, -1.34176
-1.43997, 0.823479, -0.70343
-0.484938, 1.13627, 0.14527
-0.882059, 0.0936707, 0.657572
0.908102, -0.226254, 1.30556
0.104674, 1.09518, 0.198976
-0.139856, 0.274354, 0.72812
0.320379, 0.498507, -0.00503539
0.147345, -0.332603, 0.314987
-0.163092, 0.841354, 0.822799
2.72266, -0.462298, 0.710474
0.463419, 0.988806, 1.27346
-0.500251, -0.685796, 0.382832
-0.0216331, 0.808206, -0.677117
0.82195, 0.366315, 0.419103
1.32215, -0.379448, 1.26777
0.481571, 0.378215, 0.187867
1.8867, 2.23843, 0.404185
-0.877291, 0.0655398, -0.384504
0.748052, 1.19481, -1.87259
2.37207, 2.12919, -0.864196
0.729769, -1.93249, -0.226237
-0.58964, 2.38539, -0.448304
-0.800242, 0.0353922, 1.61979
0.27914, -1.27059, 0.478817
-1.81927, -0.581453, 1.15499
0.138402, 0.306376, 0.36896
-0.262195, -0.155879, -0.65241
-1.10866, -0.168487, -0.238088
1.35908, 0.676372, -0.624909
0.811705, -0.0543966, -0.343541
-0.406942, 1.05317, -0.99159
-2.29003, 2.40937, -3.11427
-0.224, 0.307243, 0.221089
1.29101, -0.707112, -0.0954446
0.34638, 0.712336, 0.222101
-1.35924, -0.431766, 0.723939
0.0818646, 0.124583, -0.361289
0.661238, 0.556936, -0.721833
-1.03541, 0.00181778, -0.751319
-0.0274716, 0.0884587, -1.00878
-0.60922, -0.618701, 0.260043
0.324864, 0.73852, 0.365167
1.24831, -1.14233, -1.20168
0.242375, -0.698554, 1.50427
0.417643, -0.0624356, 0.720686
-1.0345, 4.36775, -1.14314
-0.079333, -0.181742, 0.466357
-0.249827, -0.331892, 1.15259
-0.128417, -0.880816, 0.459823
0.396635, 0.494982, 1.30571
0.37711, -0.852186, -0.525457
-0.299043, -0.883122, -0.0190502
1.72643, -1.49786, -0.317081
0.627308, 0.291055, 0.16706
-1.48799, -0.105035, -3.35897
-2.05563, 0.351607, -0.516476
0.96885, 0.430466, -0.772868
1.02543, -0.236738, 1.06293
-0.859053, -0.704612, -0.130669
-0.0760826, -1.24654, -0.686426
-0.490872, -0.250844, 0.258034
0.217392, -0.262799, 0.964973
1.24777, -1.43494, -0.831109
-1.21771, 0.0856143, -0.789739
0.0687591, -1.08447, -1.72636
-0.365661, -0.444778, 0.000227945
0.866785, -0.156577, 0.142364
0.223623, 1.1038, -0.72065
0.873703, -0.426537, 0.981185
0.985221, -0.518517, -0.732529
-0.580032, -0.118103, -0.0174168
-0.172728, -0.0362866, 0.335477
0.306703, -0.210925, -0.575765
-0.475104, 1.5017, 1.2402
0.630486, 0.320959, 0.457542
0.748415, 1.21355, -1.19349
-2.13326, 0.313212, 1.75507
0.279853, 0.143749, -0.436759
0.659718, 2.36039, 0.594612
0.529503, -0.815571, 0.526507
-0.48125, -0.55943, 0.911412
-0.541311, 1.22961, 0.472925
-1.44529, -0.348956, -0.24317
-0.764231, 0.70545, 0.98944
1.15545, 0.831404, 0.281649
1.72767, -1.63439, 0.322628
-0.122364, 1.13276, -1.68134
0.604799, -1.01736, -0.423696
-1.61353, 0.116504, 0.492363
-0.0824794, -0.348898, -0.504962
-1.05988, -0.732393, -1.46704
0.782084, 0.212393, -0.389072
-0.666338, -0.596588, 0.497989
-0.25184, -0.101148, -0.0907181
-0.109581, 0.0240194, 0.151932
-0.116749, -0.850579, -1.5425
-0.0726676, -0.175279, 0.386327
0.727916, -0.947511, -3.26696
-0.0436689, -0.532362, 0.696141
-1.08392, 1.20957, -1.48428
-0.755091, 0.595262, -1.37164
-2.27442, 1.75949, -0.956605
0.302322, -0.517243, 0.0741493
-1.21224, -0.900523, 2.23884
-0.492472, -0.318132, -0.395783
0.643672, 1.55955, 1.27354
1.90716, -0.904321, -0.957504
-1.15027, 0.678745, -2.46866
0.239196, 0.199375, -0.424965
0.0963392, 0.99297, -0.857879
2.15641, 2.20171, -0.49327
-0.0350009, 0.149798, -0.0122166
0.788958, 0.684873, 0.393746
-0.117762, -0.775748, -1.07722
-0.581114, 1.02968, -0.151504
0.262019, -0.25476, 0.109754
-1.10663, -0.0917354, -0.352217
0.347499, 2.21353, 0.0023769
-1.13912, 0.91315, 0.232855
-0.202527, -1.09292, -2.16585
-0.605137, 0.925769, 0.36754
-0.612039, 0.203007, -0.073108
0.551428, -0.661689, -1.23316
-0.495061, -0.570479, -0.142109
1.00604, -0.36088, 0.86178
-0.58713, 0.597556, -0.0882628
-1.18384, -1.63688, -0.18421
1.06231, 1.18963, -0.257568
0.7438, 0.492767, -0.414027
-0.561304, 0.204397, -3.08584
0.15209, 0.344608, -0.195374
-2.56896, 0.249763, -1.09648
0.390774, -0.385833, 0.148839
1.57019, -0.825606, 0.436728
-0.00982408, 0.287799, 0.487029
0.471775, -1.05341, -1.79325
0.372636, 0.787373, 1.82111
-0.157402, 2.11148, 1.55514
1.11313, 0.183281, 0.258201
1.99607, -2.55676, 0.741693
-0.48712, 0.695507, 1.07746
0.218619, 0.171252, -0.112994
-0.137261, -0.0634988, -1.94367
-0.2035, -0.131325, 0.0275302
-0.802116, -0.726528, -0.705505
0.467256, 0.825088, 1.70573
-0.202519, 0.107085, -1.27971
0.282108, 0.121814, 0.648215
0.750589, -1.93978, 1.74342
-3.23925, 0.656234, -0.0638461
-5.98227, -0.732192, 1.38844
1.38897, 0.194791, 0.715146
0.0739868, 2.24169, 2.53043
0.279511, 0.73573, 0.235508
-0.210637, 1.01992, -0.940853
-0.706067, 0.486813, -0.561612
0.468952, 0.357506, -0.196481
1.18366, 0.369767, -0.870629
0.655961, 0.288784, 0.166128
-1.11991, -2.04487, -0.545343
0.854278, 0.414335, -1.0901
0.705282, 0.282974, 0.426392
0.498627, -0.977209, -1.50842
0.564214, -0.0712518, -0.49747
1.29445, 1.32311, -1.58073
2.22968, 0.29022, 0.0193929
-0.192069, -0.700142, 0.49852
-0.410777, -1.26595, 1.02221
0.611966, 0.105574, -0.955423
-0.270184, 0.317923, 0.35917
0.0945813, 0.233375, 1.57465
0.969936, 1.20306, 2.53363
-0.0703805, 0.353789, 0.452954
0.200353, -0.0597533, -0.585715
-1.1398, 1.6294, -1.05295
-0.511735, -0.318357, 0.462037
1.02195, 0.392414, 0.841398
1.69659, 0.41851, -1.33927
0.259167, -0.847814, -0.190958
-1.11517, -1.12321, 1.71825
-0.881728, 0.796336, 0.133804
-0.244403, -1.2232, -0.460247
0.0287864, 0.172449, -0.18012
0.813658, -0.63652, -0.132499
0.180929, 1.01955, 0.0810164
0.774548, -1.55347, 1.57069
-1.70889, 2.10284, -0.150219
1.62256, -0.747391, -0.607462
0.314223, -0.458538, -0.924413
-1.5458, -2.0828, 0.140732
0.235982, -1.59306, -1.19176
0.0397261, 1.1329, 0.700295
0.501579, -0.070032, 0.203738
0.570178, -0.0765715, -1.68624
-0.647718, -0.32494, -0.153438
1.41374, -0.27614, 0.402418
-1.34626, 1.34369, 0.788576
0.563002, 0.474811, -0.630082
2.11566, -0.221697, -1.88504
0.0356021, -0.525175, 0.48312
0.21253, -0.681457, 0.341322
0.0421439, 0.0935361, -0.194711
1.3221, -0.360305, -0.86969
-1.6797, 0.317919, -0.325347
-1.76117, 0.749693, 0.676245
2.09537, 1.4248, -0.206951
1.93784, -0.141242, -0.883001
0.211717, -0.865253, 0.162876
0.185997, -0.444501, 0.445689
-0.883502, -1.00076, -0.832553
-3.35534, 0.197005, -1.32185
0.698196, -0.460586, -0.63922
0.264462, -0.587388, -0.429221
0.470773, 0.154569, 0.474524
-0.38339, -0.441634, -2.21195
-0.481013, -0.0429615, 0.112309
-1.00101, -0.741237, 0.0605512
0.205094, -0.32357, -0.93007
-1.836, -0.750889, 0.772472
-0.418369, -0.893068, -0.122892
-0.522578, 0.18911, 2.17602
0.690565, -3.99161, -1.99303
0.552358, 0.586159, -0.077299
-1.36602, -1.0263, 0.532786
0.980286, -0.0893732, 0.939647
-0.718455, 0.0537709, -0.0501786
-0.698286, 0.38085, 0.234625
-0.420347, -0.294349, -0.0323546
-0.273117, -0.154354, 0.169278
1.06883, -0.965731, -0.621651
0.632412, 0.337097, -0.469926
-0.377597, -0.722493, 0.309816
-0.053824, 1.26454, -0.0861592
-0.82049, -0.226797, -0.97808
0.981808, -0.12925, -0.0226008
0.797114, 0.391312, -0.920517
-1.04658, 0.822449, 0.454985
1.02973, 1.63389, -0.583311
-0.117486, 0.183424, 2.00659
1.18669, 1.24552, 0.0832134
0.0332729, -1.26919, -0.120995
-0.990058, -2.28679, 0.900607
0.0310442, 1.69277, 1.97176
1.32995, 1.41035, -0.143858
2.36105, 0.0481367, 1.67884
-0.802576, -0.666803, -1.27907
-0.845036, -1.21076, -1.66526
-0.45746, 1.42515, 0.302679
-1.499, 0.358276, -0.424917
0.386119, 1.10931, 0.197779
0.737783, -0.833756, 0.936284
0.230295, 0.757524, 0.662282
-0.2921, 1.1477, 1.31278
-0.487794, 0.352713, -1.62595
-1.34043, 0.928758, -0.273244
-0.388882, 1.17512, 0.4532
0.0610331, -1.58083, 0.389354
0.15437, -0.758213, 0.361114
0.838367, -1.28792, 0.0305827
-0.146986, 0.467241, -2.35738
-0.760865, -0.710806, -1.66639
-0.237494, -0.526645, -0.793339
0.272108, -2.45014, -0.67786
-1.2808, 0.521724, 0.116923
1.10869, -0.0988664, 1.61249
-0.727411, -0.0413661, -0.422991
0.0332713, 0.0814185, -0.937764
0.0604115, -1.72871, -0.523105
-0.277582, 0.19026, -0.678831
0.652363, -0.136686, -0.105956
0.24878, 0.495096, 0.1637
-0.235092, 0.0824426, 0.951353
0.635047, -1.10188, 0.630282
-0.903522, 0.318828, -0.715668
-0.0606118, 0.641578, -0.424468
-1.04345, -0.183903, -0.315336
1.22819, 0.0632216, 0.453882
-0.137128, -0.0967175, -0.151849
0.343543, 0.154397, 0.576916
0.549984, -0.206504, -0.425572
-1.18001, -3.4506, -0.00822659
0.857862, 1.64371, 0.464094
0.518465, 0.385696, -0.81687
-2.30745, 0.562847, -1.36254
0.845388, 0.143879, -0.468416
-1.23929, -1.59816, 1.03233
0.0853371, 0.753198, 1.20017
-0.262324, -0.130211, -0.65179
-0.596248, -0.946308, -0.365936
0.171481, 0.468956, -0.134807
2.0564, -2.13721, 0.582309
0.701708, -2.40814, 0.750527
0.160225, 0.0435051, -0.672382
0.355654, 0.522832, -0.779016
-0.910986, -1.30704, 0.410159
-1.15701, 0.392622, 0.414319
0.199046, 0.876364, -0.519262
0.883057, 0.230227, -1.38493
0.654278, -0.3404, 0.194377
-0.892229, -0.1793, 1.3137
0.673001, 1.18948, 1.13131
-0.465621, 1.07915, -1.02604
-0.713046, -0.733079, -0.182168
0.19589, 0.251529, -0.57816
0.748507, -0.89956, 0.38475
0.545471, 1.22378, -0.110642
1.45442, -0.441605, -0.808015
0.233964, 1.12365, -1.95987
0.315207, 0.767895, -0.43235
-0.723287, 0.727739, 0.528095
-0.00288054, -0.391211, -0.318044
-0.864196, -0.949929, 0.325988
-1.47274, 1.48735, 0.530995
0.206737, -0.634342, 0.262955
0.0308714, -0.566299, -1.09467
-0.000699771, -1.40743, -1.52996
-0.282376, -1.68613, -1.38
0.160445, 0.371064, 0.531558
1.46836, 0.699205, -0.626521
-0.149383, 1.78341, 0.553782
0.477585, -0.176575, -0.278247
-2.44254, -1.11648, 1.65545
0.162381, -1.95426, -2.19717
0.783183, 1.15313, 0.0673772
0.213834, -0.456494, -0.800814
0.362168, 0.0723224, 0.11379
0.401748, -0.798685, 0.88313
-0.012218, 0.234332, -0.997058
1.65618, 0.695579, -0.14539
0.393917, -1.49204, 0.687691
1.71391, -0.872562, 0.357854
0.930128, -1.06708, -1.37251
0.169276, 0.142502, -0.161656
-1.28468, 0.935468, 1.89374
0.105779, 0.36918, 1.35206
0.408609, 0.13036, 0.638665
-2.46079, -0.52364, 1.43809
-0.916117, -1.35244, -2.70669
-0.153839, -0.00789707, 0.768079
0.601905, 0.0779722, -0.0532032
-0.368965, 0.289483, 0.751215
1.5691, 1.71336, -0.100295
-0.705926, 0.853607, -0.849833
0.115728, -0.333326, -0.267101
1.02617, -0.779656, 0.504348
0.532163, -1.06471, 0.0880887
0.650123, -0.108415, -0.489476
-1.21578, 0.0645671, 0.654412
0.675783, -0.126684, -0.993724
0.586111, 0.147119, -2.29871
0.216764, 0.283795, 0.432773
-2.2366, -1.417, 0.501405
1.82314, -1.61642, 3.22387
-0.524979, -0.587809, 1.02767
-0.762816, 0.200655, -0.979647
1.9997, 2.04262, 1.71972
0.931965, 1.12173, 0.0548183
-1.05023, 1.22719, 0.383195
0.203219, -0.261912, 0.113475
1.22171, -1.42703, 0.256075
0.152861, -0.25283, -0.107676
-0.0746619, 0.676171, 0.554658
0.993162, -0.354091, 1.61144
-0.527739, -1.21018, -0.0956951
0.0288526, -1.85401e-05, 0.904295
-1.87672, -2.95801, -0.384203
0.442008, -1.56582, -0.454769
-0.660829, -0.302651, 0.392052
0.643878, -0.722938, -0.936465
-0.0130469, 1.10437, -0.734579
0.467899, -0.273708, -0.799647
0.371826, 1.6462, 0.686774
-0.0937389, 0.494351, -0.757816
-0.179146, -0.94618, 0.724549
-0.056548, -1.33015, 1.92073
0.243482, -0.510287, 0.288134
-0.0708356, 0.890127, -0.470109
1.00049, 1.6486, 1.3441
0.201414, 0.367994, -0.636717
0.474755, -0.345258, -2.01931
-0.225607, 0.831703, -0.0537327
-1.25866, -0.194585, -0.570727
2.4763, -0.204068, -0.739147
1.58768, 1.13617, 1.28382
0.36301, 1.23726, 0.359628
-0.00413242, 0.267088, 0.695956
0.178373, -1.35752, 0.757879
-1.19636, -1.04589, 1.63048
0.244459, -0.993461, 0.034397
0.575849, 1.00339, -0.399578
0.471875, 1.02188, -1.0836
-0.95493, -1.81914, 0.366935
0.113934, 0.731765, -0.247462
-0.328699, 0.374215, 0.381378
-0.119886, 0.871803, 0.384079
-3.80636, -0.812075, 0.657547
-1.04493, 0.191379, -1.25702
0.0962386, -0.255551, -1.26332
0.809069, -1.21177, -1.02177
0.667479, 0.882177, -0.303659
-1.52746, -0.181839, -0.608105
0.442143, -0.486764, 0.739943
-0.539547, 0.936357, -0.304779
-0.137659, 0.917176, -0.499467
-0.888144, 0.0470939, 1.5556
-1.43984, -1.24061, -0.867979
0.0714763, 0.204128, 0.358129
-0.977318, 0.282334, -2.20917
1.03401, -0.730211, -1.41148
0.151933, -0.326193, -0.177922
0.932888, -1.12281, -0.402574
0.415958, 0.747517, -0.106506
0.185583, -0.520224, 0.321244
0.47477, 0.458878, 0.942864
-0.234518, -0.027834, 0.472916
-0.692553, 1.35628, 0.538247
-0.348675, -0.375355, -0.3903
0.880341, -0.638054, -1.32834
-0.296247, -0.256524, 2.75264
-0.13852, -1.53284, 0.390183
0.41164, -0.90275, -0.78151
-0.434063, 1.00757, -2.76616
-0.124734, 0.351593, -0.676642
0.157598, 0.549105, 1.55248
0.996112, -0.927529, 0.919254
0.0762728, -0.0745303, 0.977372
-0.471506, 0.177161, -0.202904
0.695681, 0.00967125, 0.161297
-1.84471, -1.12927, 1.24945
0.240199, 0.757428, 1.17495
-0.473006, -0.297926, 0.457206
-1.79888, -0.918245, -0.203719
0.50899, 0.939598, -0.488539
-1.72092, 1.05328, -0.77132
0.510957, -1.219, -1.287
0.654681, -0.0792425, -0.432992
1.19623, -1.40578, 0.618185
-1.02429, -0.224844, -0.174033
-1.11554, 0.497458, 0.735105
-0.322564, -0.853243, 0.0434416
0.392089, 0.0444706, 0.279916
1.48183, -0.341864, -0.391202
0.946857, -1.04371, 0.502683
-0.81521, -1.4173, -0.0288564
0.225165, -1.78644, 0.144712
-0.0770859, -0.0835863, -0.187771
0.728548, -0.16671, -0.164916
0.337274, -0.823338, -0.924795
0.610116, 0.292464, -0.155378
-0.129288, 2.01861, 1.95254
-0.588437, 2.05093, -1.21321
1.16607, -0.122047, 1.02282
-0.041248, 0.451408, 0.360744
-0.894301, 0.146888, -0.292163
0.285989, -0.871466, -1.91395
-1.6367, 0.0285893, 0.151636
-1.90987, -0.746574, -1.22917
-0.718249, -0.450709, 0.96887
0.346129, -0.493452, -1.08669
-0.151752, 0.139046, -0.0767655
0.581932, -0.194422, 0.695641
-0.795468, -0.27644, 1.1192
0.814171, -0.958365, -2.12962
-0.0745174, -0.709557, 0.771861
-0.413554, 0.488737, -0.834622
0.725098, -1.15635, 0.517214
-0.161994, 0.357476, 0.460404
-0.132792, -1.53557, -0.695702
-0.361957, 0.0418623, 0.0177939
0.0469665, 0.829072, -0.98433
0.200171, 0.472285, 1.62539
-0.132058, -0.177766, 0.197815
-1.19884, 0.149796, -1.04993
-2.49441, -2.922, -0.559067
0.374821, -0.223684, 0.262651
0.203385, 1.07594, -0.266329
-0.298192, -0.542983, 0.204231
-0.781284, 0.612054, -0.0260584
-1.66181, -0.662069, -0.13104
-0.293866, 0.907746, -0.843767
-1.52795, 0.721241, 0.656813
-0.404699, 0.428962, -0.554504
-0.696367, 2.01097, 2.27685
0.765335, -0.39636, 0.522267
1.15271, -1.50312, -0.658603
2.34836, -0.19767, -1.43232
-0.610218, 1.61217, -0.440871
0.0173605, 0.588351, 0.313056
1.22313, -0.160178, 0.205366
1.9061, -0.49649, 1.02907
-0.268288, 0.230695, 0.360543
1.07971, -0.451043, 0.834995
1.54521, -0.729078, 2.1637
-0.658472, 0.756666, -1.58095
0.681129, -0.499066, -0.137744
-0.700334, -0.26552, 0.778101
-1.17707, -0.0595927, -0.65987
0.057906, -0.245601, 0.38194
-1.97466, 0.386071, 0.224006
0.064467, 0.583189, 0.706965
-0.299735, 0.267912, -0.343078
-0.361, -1.16078, -0.530573
-0.14122, 0.991624, -0.037062
-0.469928, -1.34476, -0.484466
0.572119, -0.329955, -0.0593037
0.34444, 0.476698, 0.684103
-0.700718, 0.664287, -0.508797
0.396358, 0.483604, -0.405652
1.19327, 0.65926, 0.510519
0.599296, 0.945615, 1.8499
0.796975, -0.48997, -1.93526
-0.0593314, 1.04957, 0.349122
0.175421, -0.523353, -0.148141
0.878984, -0.306617, -0.168308
0.762075, -0.41718, -0.830102
0.301225, 0.208344, 0.0798585
-0.352723, -0.516216, 0.395064
-0.676188, 0.414687, -1.3757
0.215835, -0.377913, 1.90647
-0.437801, 0.261271, -0.0984627
-0.586016, 1.66663, 0.962289
0.242526, 0.418496, 0.0322396
0.241426, -0.396846, -0.174927
1.67068, -0.210859, 2.99314
0.158509, -1.27635, -1.25911
-0.985364, -0.555095, -0.254799
-0.47921, 0.150042, 0.0573513
0.774647, 0.52183, 0.437728
-0.293187, 0.282635, 0.370957
2.92833, 0.164703, -0.786951
-0.395484, -0.271987, 1.35134
0.510718, -0.680682, -0.611771
1.94971, -1.3223, -0.305521
0.456213, 0.497558, 0.280216
0.55528, -1.99989, 0.229755
-1.3319, -0.746688, 0.291695
0.0383778, 0.157525, 0.0805985
0.234474, 0.052707, 0.648901
-1.40719, -0.353808, -0.296876
0.0489819, -1.69491, 1.9461
-0.32067, 0.934528, -0.209189
-1.03165, -0.308456, 1.26697
-0.216716, -0.318328, 0.0648132
1.07975, -1.05967, -1.34399
0.601162, 0.573534, -0.181894
-0.0613627, -1.89694, -0.573925
-0.339546, -0.399881, -0.01211
0.175282, -0.100624, -0.329971
-0.0469554, -0.042149, 0.728365
1.31154, -0.794899, 1.16286
-0.303954, -0.120393, -0.496875
0.641693, 0.0797321, -0.625118
-0.759016, -0.37219, -0.18663
-0.805833, 1.59831, -0.704425
-0.454476, -0.558201, 2.38035
0.0197108, -1.04341, 0.965671
0.178197, 0.406608, 0.603845
-0.984087, 1.16857, 0.276858
0.263176, -0.34994, -0.868674
0.612647, -0.194306, 0.609204
-0.634181, 1.69857, 0.216751
1.17401, -0.703271, 0.863854
-1.00717, -1.0501, 1.04412
-0.503199, -0.316732, 0.0826261
0.055433, 0.143142, 0.142247
-1.24725, -0.329225, 0.361722
-0.723162, 0.540162, -0.143527
0.385265, -0.102705, 2.10433
0.943, 4.01208, 1.56776
1.46517, -0.586895, -0.520301
-0.513676, 0.422863, -1.04237
-0.797609, 0.847974, -0.821433
-0.438152, -0.078881, -0.6963
-0.618939, 1.46586, 0.938672
-0.39134, -1.39819, -3.77041
-0.2196, -0.364726, 0.929951
-0.0731792, 0.0129016, -0.00241392
0.0890312, -1.1537, 0.104405
0.776957, -0.229248, 0.511853
-0.531154, -0.605243, -1.03253
-1.04838, 0.999353, 1.1861
-0.541333, -0.671877, 0.110456
0.521318, 0.0576515, -0.0932907
0.237802, 1.01348, 1.06612
1.55837, -0.796743, -0.149878
-0.691196, -0.939779, 0.665183
-1.42463, -0.263293, -0.174958
0.959183, 0.759167, -0.46245
0.347342, 0.626627, -1.58466
0.103026, 0.104067, -0.0265625
0.148951, -0.401241, -1.00389
-0.52054, 0.313992, -1.49868
-0.2458, 0.105987, 0.576089
1.14276, 1.50906, -4.2008
1.07273, 0.396049, 0.826975
-0.00496951, 0.221361, -0.312341
-1.8265, 2.0271, 1.41069
1.9763, 1.04036, 0.465193
0.0328421, 0.0171963, -0.615955
-0.334872, -0.290362, -0.473065
-0.287104, 0.196462, -0.0354843
0.493605, -0.567594, -0.343515
-1.58425, -0.243597, -0.15965
-1.95927, 0.308969, -0.865673
-0.692524, 0.0217888, -1.01608
0.268111, -0.455301, -0.389977
0.236875, -0.951371, -1.75042
0.612721, -0.975726, 0.735018
-0.00755007, 0.0545818, -0.0507291
0.204195, -0.204229, 0.431287
-0.135423, -1.02355, -0.849119
0.338528, 0.552504, 0.843503
1.31416, -1.45399, -0.362169
0.999962, -0.108362, -0.0677769
2.59364, -1.15206, -0.139719
1.02285, -1.07863, -0.773036
0.53901, 0.553052, 2.38215
2.68858, 0.158113, 0.0542906
0.058961, -0.104826, -0.159165
-0.3824, 1.35668, 1.18716
1.84163, -2.11264, -1.36509
2.69325, -2.40991, -1.79313
-0.431028, 0.271689, 1.15858
0.564051, 1.21636, 1.03337
0.77862, 0.0677068, -0.860936
0.191562, -0.0480842, 0.016463
1.26117, 0.45784, 0.311398
1.68276, -1.05711, -0.065912
-0.21913, 0.328496, -0.422391
-0.980032, 2.4348, -1.45845
-0.612267, 1.05312, -0.331269
2.24359, 0.591284, -0.867384
-1.23641, 0.529569, -0.881903
-1.5185, 1.81593, -0.969206
-0.658246, 0.0749546, 0.42784
-1.24476, -1.11781, 0.30264
2.01378, 0.880435, -0.855122
0.0390205, -0.0608485, 0.0167754
0.299696, 0.608208, -0.114381
0.665696, 1.90135, -1.26865
-0.789205, -1.60231, 0.738267
2.5242, 0.626403, 0.111859
-0.441295, -0.356718, -1.12467
0.526745, -0.164241, 1.27705
-0.0194807, -0.100529, -0.994043
-0.290174, -0.397655, 0.766325
1.45384, -1.27554, -0.0670873
2.58538, 1.32721, 1.4087
-0.864718, -0.561492, 0.42818
-0.203331, -1.3264, -1.39792
0.847858, -3.88083, -0.995211
1.31837, 0.615327, -0.285213
-1.84573, 0.385065, 0.348643
-0.943203, -2.48529, -0.419902
1.27828, 1.33751, -0.761066
-0.80428, 0.502476, 1.2618
0.645236, -1.5302, 0.536607
-0.460358, -1.60783, 0.785187
-0.373702, -1.75106, -0.376024
0.427571, 0.192653, -0.719902
-2.37476, -1.53602, 1.99506
0.435479, -0.890337, 1.64902
0.174787, 0.140435, 0.11625
1.84651, -2.22695, -1.50494
2.09818, -0.274839, 1.43473
-0.476814, 0.0403953, -0.0403712
0.072951, -0.43017, -0.116168
1.89248, 1.20948, -1.85904
1.202, 0.322803, -0.0589298
-0.648437, -1.07362, 1.01468
-0.273371, 0.581473, 1.06129
1.8217, 0.841759, -0.13466
-1.39386, -0.373262, 0.851481
-0.0305846, -0.967151, 0.660524
-0.663971, -1.6731, 1.58239
0.654751, -0.660974, -0.977697
0.927962, -1.95234, 0.674439
-0.614122, -0.0466216, 0.610624
0.638243, 0.420008, -0.976044
-1.66355, -0.857634, 1.50954
-0.040222, -0.36576, 0.829281
0.117719, -0.565012, -0.027448
0.658731, 0.385568, -0.520607
1.76911, -0.245546, 0.74565
-0.196456, -0.0447989, -0.0818316
-0.747287, -0.337782, 0.735855
-1.06503, 0.946381, -0.480117
-0.0715499, 0.040924, -0.29981
2.02657, 2.75271, -0.157573
0.120605, 0.621005, 0.683177
-1.76708, -0.168323, -0.466614
-1.07044, 0.0407571, -0.633923
0.219945, -0.800306, 0.629013
0.699393, -1.01511, 0.910717
-0.652562, 0.286366, 0.615158
-0.223684, 0.853482, -0.814596
-0.884405, 0.459556, -0.971028
0.585925, -2.19942, -0.721059
2.03108, 0.473624, -0.971855
0.98213, -0.129375, -0.195232
2.43411, -1.16636, 1.61883
-0.197072, -0.968891, -0.129975
-0.357611, -1.04578, 0.874464
0.824813, -0.0636293, -0.339179
-2.04179, 1.25361, -1.56408
0.816709, -0.295024, 0.0500668
-0.46298, -0.555152, -1.05208
-0.725655, -0.925773, -1.18877
-1.65328, 1.41651, 1.5646
0.124015, -0.050038, 0.772656
-0.403728, -0.589048, -0.762098
-0.356529, 0.152305, -0.233184
-1.19826, 0.65616, 1.64786
-0.312683, 0.456252, 0.488558
-0.0600008, -0.0688603, -0.136764
0.38337, -0.701979, -0.174309
0.277044, 0.081517, 0.659864
1.15501, 0.394836, -0.234618
-0.437034, 0.721346, 0.347201
0.886774, -0.233178, 0.331748
0.157974, -0.850092, -0.488941
0.12734, -0.259179, -0.527257
0.22609, -1.0605, -0.0545541
0.60281, 0.86081, -0.0206696
0.925412, 1.60717, -1.09347
0.8375, -1.17336, -2.62861
-0.579594, 0.505974, 0.683327
-0.433046, 0.626874, -0.142386
0.544744, 0.799715, -0.945443
-0.342162, 0.166326, 0.210818
0.104965, -2.05555, 2.30518
0.391564, -0.112288, 0.327078
-2.89557, -1.09071, 2.91857
-0.722142, 0.101437, 0.0971922
-0.485042, 0.433235, -0.539013
-0.875876, -0.821203, 1.47564
0.886307, -0.219272, 0.95377
-0.875728, -1.40134, 0.160721
-0.0355209, -0.639822, -0.450908
2.18391, 0.899946, 1.59364
0.679923, -0.921783, -0.192287
-0.904482, 1.03138, -1.16662
-0.154616, -0.996152, -0.567907
0.0414927, -0.16152, -0.33573
1.12403, 0.455036, -0.554843
-0.334715, 0.346856, -0.0878153
0.814199, 0.324193, -1.62551
-0.237106, 1.31727, -1.14843
0.90102, 0.420189, -1.70048
-0.801165, -1.11541, 0.280624
0.100866, -0.378667, 0.104232
-0.236533, 0.165016, 0.988438
0.207516, 0.524427, -0.272862
-0.448656, -0.0565409, 0.252024
0.587255, 0.711304, 0.725008
1.37126, 0.139733, -0.0359129
0.586673, -0.292268, -0.632195
0.448435, -0.206845, 0.0138443
-0.65477, -2.14832, -1.25003
2.34502, -0.365533, -0.12637
1.88581, 0.354089, 0.762784
-0.788149, 1.21848, -1.05673
-0.381314, 0.288593, -2.36422
-1.68772, 0.297727, 0.563387
-0.11702, 1.29823, 0.414681
-0.759426, -0.097999, 0.314007
0.920355, -0.321942, -0.00639746
-0.242811, 0.380567, 0.907874
-1.01444, -0.553455, 0.161707
-0.258737, 0.779936, 1.09994
0.313485, -1.1932, 3.11532
-0.586886, 0.521031, -0.732735
-0.339986, -0.572541, -0.718725
-1.46474, -1.66173, 0.351023
0.612021, -0.59213, -0.822118
1.37369, -1.34868, -2.13026
1.56076, 0.0508964, 0.156029
0.982622, -0.942833, -0.337732
-0.523076, -0.906055, -0.0146251
-0.909214, 0.699285, -0.41681
-0.361235, -0.89388, 1.26806
-2.30115, 0.713645, -0.105301
0.0039168, -1.10731, 0.332073
0.578441, -0.219771, -0.291243
0.226055, 0.625608, -0.459401
0.432672, -0.0836614, -1.03284
-1.80175, 0.593889, 1.66997
-1.61643, -1.38259, 1.03813
-0.65516, -0.662975, 0.0158154
-0.121207, 0.783234, -1.03932
-0.376852, -0.743461, -0.197923
0.137614, 0.687521, -0.594867
1.06074, -0.0595761, -0.730793
-1.47917, 0.279186, 1.28173
-0.653165, 0.150385, 0.468585
0.244521, 0.686856, -0.274308
-0.0493305, 1.65096, 1.0195
-0.662559, -0.864764, -1.11135
1.52591, 0.787205, -0.757214
0.175898, -0.674442, 0.763765
0.175946, -0.206894, -0.452272
0.231515, 0.17297, 0.368647
-0.092738, -0.994045, 0.359241
-0.370594, 0.861159, -1.27656
0.267883, -0.00532654, 0.710558
-0.0968932, -1.08417, -1.21587
-0.259426, 0.0314117, -0.335964
0.221731, -0.600095, -3.397
0.987028, 0.258708, -1.28792
0.914933, 1.89969, 0.571563
0.378541, 1.20469, 0.261667
-0.0171227, -0.177601, 0.222784
0.315543, -0.0316762, -0.467158
0.435135, 0.231936, 0.377558
-1.70399, 1.71016, 0.111994
1.04624, -0.258007, 0.0571378
2.21747, -0.0838281, 0.209901
-0.291848, -0.179988, -0.155945
1.29005, -1.75542, 0.749941
-0.0131423, 0.649085, 0.844567
-0.235826, -1.94798, 0.56985
-0.147876, 0.209264, -0.566806
-1.33933, -2.60685, -1.16459
-0.146446, -1.30498, 0.980602
-0.596349, 0.194238, 0.756443
-0.665574, 2.13163, 0.0350574
-0.675576, -0.962862, 0.258579
0.72553, -0.909847, -0.320378
-0.0678628, 0.188938, 0.635876
0.300869, -0.293808, 1.04172
-0.390181, -0.377848, 0.103479
-1.2608, -1.63276, -1.36586
-0.245813, 0.436505, -0.332874
0.14755, 0.011478, 0.169212
0.75244, 0.207881, 1.77479
-0.497501, -0.772807, 0.263629
0.284277, 0.250983, 0.0467031
0.934598, 0.373349, 0.534808
0.831009, -0.445025, -0.634344
0.045437, -0.136034, 0.516826
-0.0502741, -1.591, 0.0214671
0.329787, 0.745646, -0.243456
0.412668, -0.590417, -2.52174
0.155086, -0.922062, -0.327665
-1.08028, 0.588129, -1.83785
1.65018, 1.53115, -1.23852
-0.115261, -0.782924, -0.940563
2.00202, -0.455219, 1.39546
-0.491592, 0.662135, -0.138109
-0.434182, -0.215627, -0.451425
0.269607, -0.598122, 0.311733
-1.31713, -0.6035, 1.51894
-0.321203, 0.432668, -0.104964
0.438174, 1.10813, 1.09931
0.370052, -0.574209, -0.571617
1.25949, -1.1413, -0.907901
-0.817547, 0.356502, 0.918098
0.116739, 0.352771, -0.128699
-0.755348, -0.687379, -0.331973
0.289372, 0.435686, -0.160855
0.165324, -0.0317048, -2.0096
-0.218645, -0.385142, -1.79727
0.444586, -0.726534, -0.0963925
-0.450909, 0.790104, 2.04412
2.8752, 2.98643, -3.45909
0.207768, 0.166423, 0.863456
0.50651, -0.957655, -0.127354
-0.610547, -1.5862, 0.134258
-1.78288, -0.0578426, -0.70926
0.232171, -1.93835, -0.429718
0.246817, -0.506754, -1.34651
-0.557835, -0.334069, 0.210533
0.784437, -0.640354, 0.607556
-0.783737, -2.23159, 0.448671
-0.910977, 0.339087, -1.09046
0.620118, 0.951792, 0.572851
0.262817, 1.61654, 0.255933
0.180444, -1.49459, 2.70451
4.20803, 0.425272, 1.04189
0.852545, -0.609305, -0.226648
-0.0958244, 0.881691, -1.005
-2.56411, -0.620001, -0.506024
0.648608, -1.98248, 2.11527
-1.15363, -0.94202, -0.434351
-0.469958, -0.389807, 0.515766
0.657823, 0.807193, -1.65288
0.152862, 0.0918225, 1.90889
0.973883, -3.30019, 0.825645
-0.906483, -0.533602, 0.594018
1.27881, -0.22716, -0.269355
0.873906, 7.69483e-05, -0.220413
-0.357088, 1.56869, -0.718729
0.905835, 0.485138, 0.305409
-0.167524, 1.21967, 0.860879
0.757964, 0.175286, 0.482168
-0.116809, -0.218781, -0.151592
-0.993799, 0.9513, -0.11543
0.308672, -0.203936, 0.041612
0.314834, 0.0907468, -0.0417979
-0.49255, -1.24557, 0.971064
-0.0692691, 0.287501, 0.840956
-1.26134, 0.00655523, -0.422909
0.59935, 0.943715, -0.079211
-0.0754354, 1.15532, 0.118252
-0.374568, -0.253447, -0.789952
-1.07128, -0.814373, -1.47093
-0.653401, 1.25533, 0.314625
-0.0558819, 0.217605, 0.425128
-0.55923, 0.237622, 0.286071
0.380809, -0.707857, -0.00433177
-1.88969, -1.07922, 0.284993
-1.37698, -0.673908, 0.761142
-0.107633, -0.0546995, 0.671607
-0.0672075, -0.479946, -0.246482
0.578518, -0.305306, -0.187081
0.462687, 0.154179, 0.7841
-1.79282, -0.478447, -0.599994
0.00426739, -0.448905, -0.789991
-0.339076, -0.334682, -0.105974
-1.56425, -0.217689, -0.339911
0.292672, -2.82245, -0.679777
-0.649305, -0.367677, 1.46302
-0.00607495, -1.71459, -0.124461
0.54188, -0.146036, 0.0742762
-2.48838, -1.52313, 0.0271224
-0.0417934, 0.697316, 1.21354
0.462517, -0.447786, -1.37869
-0.364822, -0.463936, -0.12469
-1.30122, -0.182821, -0.734347
1.16492, 0.797055, 0.744493
-0.148234, 1.54816, 2.11519
1.23635, -0.904478, 0.652572
-0.129176, -1.12551, -0.671649
-0.139155, -0.0610055, -0.0668386
-0.566293, -0.940103, -0.155323
-1.82918, 1.58131, -2.23092
0.0171534, -0.985632, 0.793379
-0.133215, 0.0511971, -0.492107
-0.318449, -0.636004, -0.272392
-1.52977, 0.802707, 0.295165
-2.39217, -1.09599, -1.68157
0.246152, -0.420592, -1.07682
-0.408175, 0.355361, 0.465007
-1.02214, -1.22144, -1.91719
-0.544158, 0.9863, 0.256861
0.430631, -0.45434, 0.00905255
-0.492284, 0.656043, -1.44709
0.176424, 0.0495668, -0.330911
-0.453203, 0.979688, -0.277454
-0.563587, -0.498303, -0.466643
-0.328391, -0.164319, 1.44139
0.551405, 0.598685, -0.924608
-2.62871, -0.762534, 0.405366
0.705578, 0.355002, 0.304045
-0.068722, -0.147317, 0.433366
0.920614, 0.0748914, -0.0670376
1.07356, 1.02913, 0.18031
0.988665, -0.199828, 2.21521
0.117706, 0.738441, 0.438236
-0.768198, -1.20837, 1.24391
2.67898, 0.319714, -0.94284
1.46308, 0.319817, 0.251399
0.0200536, -1.03038, -0.244972
0.0875041, 0.132139, -0.0353765
0.614662, 1.5698, -0.750388
0.974871, -0.757438, 2.32284
-0.554812, 0.915603, 0.62892
1.87997, -0.54057, -0.63637
-0.710607, -0.0191805, 0.211551
0.2791, 0.279132, -0.227115
0.122808, -0.726816, 0.066663
0.0740659, -0.596357, 0.911513
0.349987, -0.258902, 0.820354
1.17251, 0.125576, -2.35981
-0.00070073, 0.960048, 0.035551
-0.0268915, 3.3542, -0.059095
1.52007, 1.25008, -0.559783
0.657011, 1.27987, 0.125157
-0.886211, -0.842413, 1.12392
-0.667273, 0.198507, -0.381197
-0.827787, 0.405862, -0.365681
0.198461, 1.0439, 0.68875
0.156424, -0.15311, 0.131793
0.48999, -1.21714, -0.305658
1.40507, 0.377193, -0.370113
0.0569933, -1.73331, 1.20704
-0.295972, -0.194323, 0.20176
0.942385, -0.220619, -0.0971164
0.291504, -1.16098, -0.658886
-0.399055, 0.38659, 0.493498
0.535357, -0.662736, 0.175585
-0.908894, -0.445771, -0.330281
0.866522, 0.990062, 0.178085
0.171974, 1.83983, -0.795441
-0.117188, -0.0359927, 0.00773691
0.366041, 0.3086, 0.723081
2.29766, 1.1257, 0.522239
-0.0584553, -0.298072, -0.801045
-0.557495, -2.38372, -2.17047
-0.790347, 0.466063, -0.0539158
-1.58518, -0.665633, -1.57319
1.19327, -0.542392, 1.09529
-0.168311, -0.438949, 2.07209
0.261935, -0.0793774, -0.661688
-0.800399, -0.253531, 0.659711
-0.0708461, -0.960171, 0.359965
-0.0329222, 0.799229, 0.0555711
-0.912076, 0.378642, 0.852243
-0.828466, -1.00934, 0.623559
0.490844, -0.142325, -0.688618
0.911156, -0.553549, 0.736446
0.312719, -1.11054, 0.135056
-0.762682, -0.701215, 0.372869
0.096094, 1.05944, -1.9389
-0.254486, 0.44265, 0.120606
1.5941, 0.73591, -2.67388
0.164066, 0.126051, 0.345275
0.577053, 0.32252, 1.7753
0.519067, 0.141677, -0.271456
0.0488228, 0.0143328, -0.0198266
-0.148762, 0.217108, -0.348216
1.49812, -1.24947, 1.99281
0.0502682, -0.736869, -0.363854
-0.965481, 2.22577, 0.125064
0.981385, -0.463162, 0.340558
