1958.46, 351.564, -156.283
1971.43, 363.54, -149.814
1969.24, 372.396, -160.102
1969.41, 377.966, -161.691
1979.55, 386.278, -153.178
1969, 384.716, -144.787
1975.9, 395.355, -153.508
1970.81, 371.42, -151.346
1979.21, 359.43, -123.43
1980.54, 351.161, -131.125
1995.02, 355.99, -155.317
1998.39, 343.363, -169.393
1994.03, 336.348, -159.493
1997.99, 344.4, -167.163
1987.83, 349.119, -184.774
1988.52, 338.326, -178.047
1981.42, 314.216, -169.239
2004.03, 309.342, -184.936
1992.12, 316.971, -174.815
1993.52, 320.774, -166.103
1983.59, 313.583, -167.303
1995.73, 314.987, -155.532
1998.31, 330.292, -169.813
2003.64, 342.219, -184.677
2005.93, 330.672, -199.233
2005.63, 342.337, -194.436
2010.14, 367.856, -180.123
2018.65, 369.928, -190.958
2029.77, 376.086, -176.831
2034.19, 372.304, -182.074
2045.53, 369.578, -207.034
2032.99, 358.036, -189.551
2032.36, 364.724, -181.506
2034.95, 372.819, -176.368
2029.29, 366.416, -164.51
2016.18, 381.05, -155.426
1999.7, 375.286, -150.816
2000.48, 374.743, -162.874
2012.35, 382.287, -156.142
2013.16, 388.161, -172.865
2025.62, 374.583, -167.42
2022.01, 377.376, -167.336
2009.29, 379.175, -166.491
2014.3, 367.955, -149.609
2022.26, 373.846, -148.019
2027.35, 373.966, -142.626
2015.96, 365.436, -153.236
2002.99, 371.519, -157.401
2006.39, 381.037, -153.908
2008.52, 374.818, -134.098
2012.65, 362.514, -146.524
2007.96, 362.752, -138.938
1994.59, 353.156, -120.72
1990.09, 339.203, -123.329
1996.04, 335.646, -108.312
1994.91, 320.676, -99.6172
2001.64, 318.955, -92.1723
2007.19, 337.668, -102.27
1999.21, 352.57, -101.315
1995.68, 356.143, -109.679
2000.52, 360.039, -103.417
1994.65, 363.948, -108.991
2006.01, 353.441, -126.757
2004.61, 350.944, -121.559
1985.53, 351.986, -107.584
1981.02, 343.67, -114.627
1985.41, 343.134, -106.112
1997.34, 336.122, -128.03
1989.93, 336.646, -144.731
1982.51, 344.667, -135.926
1990.74, 331.554, -131.655
1980.76, 315.876, -130.752
1969.09, 311.259, -141.186
1952.2, 307.284, -117.398
1958.8, 319.551, -121.807
1959.02, 302.675, -101.618
1959.65, 305.559, -83.2991
1940.4, 312.291, -75.057
1936.28, 301.622, -90.8832
1937.88, 313.966, -112.103
1945.94, 314.885, -119.187
1938.23, 320.789, -110.572
1948.53, 314.224, -121.239
1948.33, 323.283, -126.607
1954.32, 317.29, -115.681
1966.01, 312.52, -123.011
1964.33, 320.884, -112.215
1969.29, 333.754, -105.403
1977.18, 341.053, -86.4697
1981.6, 352.179, -79.7924
1968.66, 356.509, -100.289
1975.29, 353.216, -97.9878
1966.51, 359.382, -80.2531
1968.84, 358.121, -50.0254
1965.92, 347.69, -39.2177
1979.16, 350.12, -46.0235
1983.49, 348.332, -25.6833
1968.28, 331.87, -5.06208
1944.67, 326.617, 4.61425
1935.66, 319.841, 0.912469
1947.24, 335.107, -8.31421
1949.58, 335.629, 8.95789
1955.19, 349.789, 2.4472
1945.03, 341.388, -4.0186
1938.04, 343.173, 11.6521
1931.06, 344.991, 20.1601
1932.72, 330.317, 10.2
1938.19, 341.314, 10.5364
1953.27, 334.968, 1.61882
1962.53, 320.046, 8.78833
1954.99, 326.239, -12.4768
1947.51, 328.024, -27.2247
1941.79, 332.207, -45.953
1947.21, 322.092, -58.9421
1943.01, 317.63, -61.5482
1926.38, 316.486, -53.606
1936.75, 317.797, -49.6908
1934.15, 315.943, -62.5913
1930.65, 324.504, -65.541
1938.4, 320.138, -75.5603
1945.95, 317.743, -68.2578
1923.39, 315.44, -87.2419
1926.23, 287.133, -61.6913
1926.54, 290, -45.6365
1935.81, 288.658, -34.8996
1937.54, 286.558, -27.2454
1944.46, 279.949, -9.69104
1945.54, 288.981, 6.27418
1961.75, 286.073, 23.2088
1961.37, 292.918, 22.8302
1980.88, 286.259, 22.5651
2000.68, 296.59, 23.5908
2000.98, 301.544, 27.2163
2003.76, 310.096, 8.45443
2005.36, 313.748, 9.23269
2025.76, 316.047, 2.496
2044.48, 310.966, 4.0486
2044.51, 301.529, 16.1866
2063.77, 337.195, 20.7708
2050.67, 334.986, 11.3894
2056.96, 332.479, 20.6613
2084.29, 323.23, 31.5296
2081.85, 310.779, 50.1952
2107.36, 310.173, 49.5404
2095.23, 306.775, 55.8934
2113.06, 299.692, 73.5827
2125.31, 288.386, 69.7311
2111.86, 272.209, 66.5412
2114.63, 277.415, 52.32
2116.78, 267.801, 68.0944
2126.89, 275.124, 58.6668
2118.2, 264.64, 72.9603
2104.15, 256.73, 73.7056
2098.66, 267.945, 80.5164
2103.23, 254.028, 76.8064
2104.44, 266.271, 70.9955
2118.45, 278.937, 66.4573
2109.9, 273.519, 52.2559
2129.19, 275.172, 33.1232
2118.62, 276.669, 28.3268
2115.4, 275.642, 38.6779
2131.67, 283.641, 31.329
2139.46, 278.375, 30.4126
2143.93, 288.879, 19.9698
2141.68, 294.558, 25.6187
2139.5, 312.658, 40.614
2150.12, 319.115, 52.3455
2155.92, 312.526, 50.9287
2163.19, 305.404, 43.1333
2160.43, 293.255, 51.7042
2156.24, 285.635, 58.5212
2158.05, 264.932, 73.2493
2159.35, 272.223, 74.73
2159.83, 291.564, 81.1615
2175.82, 295.253, 86.7203
2169.29, 289.418, 87.0725
2174.34, 280.886, 75.4253
2182.56, 299.876, 82.7689
2176.22, 291.473, 103.159
2175.66, 300.821, 100.087
2173.87, 299.405, 109.997
2182.12, 276.548, 101.384
2173.28, 289.09, 97.5394
2156.25, 286.997, 91.783
2163.55, 295.841, 68.8378
2157.09, 308.313, 61.9927
2164.95, 292.906, 70.107
2169.21, 293.532, 83.3042
2168.04, 286.61, 101.407
2162.64, 287.789, 108.361
2165.63, 276.433, 112.3
2152.05, 269.254, 113.702
2157.48, 264.8, 116.085
2156.56, 260.59, 113.688
2144.59, 261.408, 101.004
2142.1, 247.74, 105.79
2149.05, 258.072, 105.626
2154.8, 246.834, 98.4623
2161.09, 262.898, 86.4045
2160.85, 276.825, 89.5911
2162.11, 283.376, 74.211
2175.88, 288.251, 72.3105
2182.82, 289.61, 58.2416
2189.54, 288.115, 44.1997
2190.24, 313.656, 41.3013
2187.65, 315.297, 43.8534
2192.22, 320.202, 40.8611
2187.92, 316.89, 49.2273
2187.57, 326.162, 21.4912
2171.67, 328.658, 25.7581
2175.31, 322.794, 25.0688
2177.86, 318.82, 28.2593
2170.38, 314.757, 35.5611
2177.99, 314.362, 39.7913
2175.23, 327.272, 31.9831
2175.69, 334.669, 34.7069
2174.68, 319.029, 25.5308
2190.33, 317.288, 18.6721
2187.45, 324.801, 23.2887
2201.41, 316.61, 14.4608
2196.97, 321.399, 21.7129
2190.46, 320.278, 34.3259
2198.91, 306.536, 25.0892
2194.25, 290.527, 29.344
2192.65, 273.83, 21.7655
2174.58, 281.639, 26.9365
2167.23, 283.126, 33.3603
2177.85, 266.331, 17.3647
2170.36, 268.538, 23.3453
2174.47, 263.862, 11.6001
2175.08, 273.028, 17.8034
2173.46, 270.668, 25.7701
2166.38, 267.099, 32.7612
2173.11, 271.924, 44.9781
2176.55, 266.817, 33.6979
2177.89, 271.626, 40.899
2180.6, 266.36, 25.627
2176.24, 276.401, 9.54993
2163.54, 270.69, -4.64489
2158.28, 285.844, -1.9649
2167.73, 286.748, -3.68551
2168.72, 289.375, 0.266676
2156.93, 289.98, -3.22902
2147.72, 308.026, 2.45996
2141.21, 305.38, 21.807
2150.15, 298.747, 5.60389
2161.75, 291.066, 8.27925
2168, 293.245, 5.7064
2166.86, 297.172, 13.552
2168.01, 300.942, 8.61484
2155.97, 304.876, 2.80465
2159.59, 304.857, -2.18859
2154.81, 309.545, -17.0852
2166.04, 314.421, -20.0164
2156.1, 312.005, -16.284
2151.61, 319.206, -16.4306
2153.1, 330.742, -14.969
2161.45, 323.59, -20.9219
2160.31, 319.819, -20.9208
2175.04, 301.538, -24.4148
2149.27, 297.33, -23.7398
2153.27, 292.311, -23.3966
2168.46, 300.365, -31.2892
2173.45, 310.705, -22.2726
2186.29, 312.913, -18.7611
2181.93, 311.806, -15.5453
2192.47, 301.081, -23.1695
2199.44, 330.279, -26.6189
2197.79, 326.841, -35.2665
2206.46, 340.573, -54.4294
2216.27, 339.505, -46.4853
2224.55, 322.86, -52.6986
2227.22, 314.518, -54.1064
2224.03, 316.292, -64.214
2227.79, 326.786, -55.8504
2230.08, 341.985, -34.9335
2239.01, 332.915, -43.4948
2247.97, 334.932, -44.7146
2243.79, 334.391, -29.116
2261.88, 351.236, -35.4694
2270.57, 345.673, -46.3565
2273.72, 325.867, -49.544
2269.73, 308.816, -54.7171
2278.68, 302.551, -54.323
2281.88, 307.418, -66.0737
2271.21, 319.778, -61.0592
2259.86, 328.694, -56.6197
2264.52, 329.736, -50.7283
2266.63, 310.469, -57.8329
2275.66, 318.169, -47.7083
2278.74, 314.706, -54.4676
2290.67, 298.767, -65.2841
2301.01, 289.947, -66.3719
2279.14, 280.471, -64.5773
2250, 298.69, -58.9293
2244.08, 294.108, -51.7004
2239.73, 292.883, -68.5265
2234.93, 300.754, -53.937
2223.57, 311.149, -39.0448
2215.7, 322.615, -58.9457
2213.53, 327.329, -65.3776
2227.54, 326.037, -63.39
2225.23, 304.761, -69.5725
2221.68, 300.644, -70.1933
2219.61, 300.268, -78.398
2225.07, 301.795, -77.6175
2219, 298.69, -77.536
2226.94, 309.968, -76.9687
2228, 308.322, -80.7989
2237.17, 317.471, -82.9259
2232.69, 326.093, -87.9714
2223.97, 320.877, -102.896
2242.3, 299.66, -96.8775
2230.65, 300.783, -95.7942
2236.31, 307.231, -104.873
2239.59, 304.094, -107.446
2233.31, 295.111, -133.363
2237.01, 312.035, -131.42
2243.64, 313.777, -133.743
2233.71, 311.482, -120.081
2221.38, 309.272, -144.365
2236.9, 308.026, -148.269
2245.79, 317.129, -141.733
2252.55, 302.353, -134.403
2229.2, 302.816, -121.118
2222, 287.559, -105.416
2219.21, 272.712, -104.198
2224.19, 272.178, -95.9015
2244.15, 278.801, -100.13
2252.27, 266.55, -84.6994
2256.03, 261.895, -82.4375
2265.36, 258.897, -55.2976
2267.12, 254.182, -56.1298
2263.51, 253.139, -69.6625
2257.67, 254.697, -83.044
2251.41, 246.027, -84.2935
2246.06, 252.92, -90.2118
2256.51, 256.399, -106.102
2245.22, 246.897, -94.8515
2259.88, 233.771, -100.118
2285.57, 231.889, -106.785
2301.47, 220.643, -100.217
2292.98, 219.542, -101.881
2279.71, 211.731, -112.475
2261.26, 220.386, -107.319
2254.34, 235.735, -125.551
2258.09, 225.658, -108.286
2270.78, 246.813, -110.487
2274.17, 265.244, -119.29
2277.24, 267.401, -125.143
2280.44, 287.358, -139.303
2278.71, 278.339, -139.246
2289.1, 284.735, -153.93
2300.4, 281.136, -151.274
2305.94, 273.753, -146.196
2288.04, 265.954, -138.758
2296.2, 272.885, -127.97
2283.34, 267.715, -130.012
2296, 258.862, -144.002
2296.2, 246.339, -142.889
2294.97, 220.581, -135.792
2293.7, 208.7, -134.56
2295.6, 185.917, -135.682
2301.09, 185.916, -132.716
2316.63, 178.28, -128.771
2317.14, 169.153, -130.602
2304.38, 167.678, -120.262
2298.25, 162.363, -117.869
2292.87, 155.52, -125.024
2295.37, 150.341, -122.452
2294.3, 160.338, -117.787
2282.86, 164.516, -131.48
2282.29, 157.229, -128.758
2264.93, 170.451, -128.799
2258.35, 194.233, -124.662
2256.49, 204.285, -126.731
2255.09, 200.83, -119.213
2248.73, 206.092, -122.453
2266.58, 191.757, -141.002
2279.5, 190.961, -147
2288.34, 191.759, -162.015
2272.46, 179.412, -164.495
2260.45, 183.661, -161.976
2252.21, 184.724, -152.805
2252.28, 194.966, -146.116
2256.18, 197.201, -125.621
2252.8, 203.773, -128.359
2260.09, 215.754, -119.957
2257.57, 221.629, -127.946
2232.24, 242.807, -137.089
2230.26, 248.5, -155.473
2244.5, 237.739, -164.102
2231.2, 236.664, -161.959
2227.32, 220.838, -172.871
2235.6, 217.14, -193.337
2223.12, 232.587, -199.667
2212.51, 259.829, -179.176
2211.59, 244.276, -174.19
2219.73, 238.592, -186.015
2200.69, 228.732, -186.814
2205.15, 222.041, -180.138
2203.87, 235.186, -169.276
2193.65, 227.666, -170.959
2190.21, 228.248, -186.376
2187.5, 244.078, -168.647
2192.02, 231.024, -165.109
2202.86, 214.187, -157.561
2210.09, 215.55, -162.816
2194.97, 212.094, -179.119
2206.91, 225.349, -180.766
2208.12, 230.514, -183.293
2214.19, 233.315, -202.363
2210.44, 224.325, -203.124
2206.83, 222.127, -213.569
2203.82, 225.439, -225.862
2211.3, 227.98, -217.566
2205.83, 238.6, -228.737
2218.64, 249.247, -226.829
2221.19, 254.104, -225.75
2228.81, 262.46, -208.637
2229.25, 259.85, -191.088
2222.13, 256.825, -185.598
2225.83, 264.707, -180.766
2233.05, 260.853, -167.202
2218.61, 266.016, -165.299
2209.64, 272.319, -166.809
2219.34, 276.41, -178.188
2246.46, 269.149, -162.443
2242.38, 268.361, -153.842
2245.61, 265.23, -152.63
2242.46, 271.654, -160.515
2222.38, 264.742, -170.448
2236.38, 261.379, -159.478
2235.79, 271.02, -167.006
2234.27, 275.661, -171.208
2219.83, 273.137, -160.355
2225.32, 256.7, -147.808
2229.16, 275.017, -162.609
2200.95, 272.749, -151.644
2187.08, 261.463, -158.905
2194.06, 276.207, -153.818
2199.17, 273.924, -147.78
2194.98, 271.441, -136.456
2186.83, 257.576, -132.58
2193.89, 246.737, -136.427
2194.48, 243.732, -138.284
2193.5, 247.169, -136.885
2201.41, 255.575, -116.959
2204.19, 247.597, -123.434
2206.55, 251.623, -118.647
2214.29, 245.789, -105.723
2221.11, 246.107, -122.858
2219.54, 263.67, -123.662
2219.62, 251.087, -109.111
2203.75, 239.891, -115.863
2207.8, 227.48, -112.08
2212.16, 221.727, -120.709
2193.5, 227.425, -122.177
2203.29, 210.702, -114.044
2214.51, 195.167, -121.96
2209.45, 206.732, -117.092
2226.3, 208.863, -131.154
2215.71, 215.601, -142.598
2209.76, 217.721, -142.715
2203.58, 231.756, -154.396
2213.28, 232.057, -177.903
2227.54, 237.228, -174.799
2216.41, 222.282, -174.789
2226.65, 228.682, -182.219
2242.36, 214.007, -182.985
2241.05, 207.789, -199.806
2239.17, 212.085, -199.798
2241.1, 216.521, -210.318
2250.54, 224.763, -202.21
2239.04, 225.372, -192.413
2240.22, 217.573, -175.481
2238.88, 210.512, -177.562
2249.09, 200.936, -186.381
2245.59, 194.251, -190.795
2244.36, 180.302, -189.043
2246.99, 179.24, -200.069
2222.25, 192.006, -197.043
2218.85, 201.996, -187.055
2242.64, 199.254, -192.904
2234.72, 188.942, -197.761
2237.32, 186.632, -207.028
2246.22, 171.785, -202.57
2254.26, 160.344, -191.646
2272.78, 159.013, -209.708
2264.15, 145.364, -208.203
2283.51, 155.513, -214.539
2280.62, 153.13, -205.758
2262.9, 155.123, -207.876
2270.75, 146.147, -199.218
2258.97, 151.699, -202.529
2247.24, 169.925, -208.986
2245.79, 175.918, -203.67
2261.28, 177.036, -204.449
2258.78, 184.996, -211.823
2250.61, 184.101, -216.875
2248.35, 184.536, -215.285
2237.2, 168.9, -228.149
2232.74, 164.902, -234.366
2233.67, 168.403, -226.523
2238.82, 156.914, -227.853
2235.27, 164.935, -222.995
2246.93, 162.07, -219.311
2254.29, 149.257, -221.119
2264.37, 151.694, -232.788
2271.94, 151.775, -224.23
2278.18, 149.412, -213.168
2271.16, 145.879, -224.899
2267.06, 149.74, -240.731
2275.67, 135.396, -239.015
2277.21, 127.215, -223.95
2287.45, 116.583, -211.687
2283.85, 107.238, -191.302
2288.19, 111.429, -193.374
2294.21, 97.0473, -195.718
2302.32, 89.8939, -183.841
2291.37, 85.6145, -179.643
2291.21, 90.6679, -169.539
2285.22, 90.868, -175.132
2293.73, 84.4545, -169.606
2285.86, 91.0394, -157.366
2285.22, 100.581, -158.5
2302.5, 96.936, -139.594
2302.01, 108.135, -148.454
2300.8, 120.338, -137.5
2286.69, 129.219, -155.752
2267.34, 141.72, -168.595
2275.85, 145.142, -168.437
2268.47, 151.7, -173.837
2274.83, 153.123, -177.839
2275.58, 165.409, -190.267
2309.46, 167.129, -177.929
2308.7, 183.39, -169.881
2282.36, 172.435, -168.5
2281.66, 159.019, -171.921
2277.37, 161.106, -164.574
2256.89, 147.653, -165.392
2260.68, 154.809, -173.623
2262.53, 167.103, -169.003
2280.38, 164.548, -191.035
2291.16, 160.629, -181.335
2288.31, 168.919, -184.984
2285.68, 175.264, -184.435
2309.17, 178.103, -197.94
2323.56, 172.26, -199.228
2325.57, 174.767, -197.597
2329.89, 204.06, -176.764
2330.25, 193.504, -159.627
2312.8, 199.397, -171.683
2312.66, 193.193, -173.461
2307.62, 184.514, -185.908
2295.15, 187.879, -199.093
2284.27, 189.313, -200.961
2284.35, 192.187, -204.508
2279.37, 208.026, -194.905
2274.41, 216.455, -196.54
2270.79, 209.612, -184.713
2264.01, 201.195, -188.348
2262.49, 195.48, -190.857
2257.94, 200.475, -168.322
2241.42, 203.736, -179.328
2248.79, 211.83, -195.214
2253.53, 211.955, -199.478
2250.59, 214.299, -197.092
2251, 228.876, -184.883
2252.37, 222.581, -189.316
2253.02, 217.43, -192.441
2252.56, 225.322, -186.748
2248.95, 245.081, -189.284
2251.74, 259.524, -191.779
2242.27, 268.702, -186.725
2230.16, 268.277, -202.982
2245.67, 252.369, -188.421
2242.02, 243.426, -189.195
2256.14, 248.486, -190.364
2271.38, 242.748, -187.424
2279.65, 259.832, -187.105
2286.38, 264.863, -188.572
2287.78, 264.131, -176.989
2275.89, 267.475, -173.392
2259.93, 266.751, -161.624
2249.27, 266.522, -157.073
2236.69, 261.525, -156.377
2240.18, 249.868, -151.237
2240.42, 258.101, -144.685
2237.54, 255.912, -153.772
2238.19, 236.609, -151.401
2230.8, 242.717, -147.287
2233.5, 240.863, -180.761
2230.49, 230.077, -190.193
2227.51, 242.881, -167.773
2213.46, 234.496, -161.202
2227.6, 227.532, -161.439
2220.98, 232.301, -172.463
2218.89, 221.309, -158.992
2208.69, 222.875, -172.913
2209.56, 222.026, -162.368
2200.66, 221.619, -162.656
2198.38, 231.04, -166.492
2192.94, 237.833, -156.771
2184.66, 243.998, -139.401
2176.32, 237.528, -126.539
2179.82, 238.509, -123.785
2184.63, 235.161, -119.697
2196.51, 223.542, -109.551
2186.27, 209.493, -96.5205
2188.84, 204.147, -71.0154
2186.06, 201.175, -84.125
2191.11, 198.304, -103.926
2194.32, 203.259, -89.7976
2201.19, 205.092, -93.4983
2197.45, 207.028, -73.3506
2190.39, 186.591, -67.8863
2194.97, 199.161, -81.7016
2191.57, 197.899, -89.8724
2185.28, 196.613, -106.478
2201.79, 209.283, -94.7858
2203.39, 201.629, -89.4458
2223.17, 194.047, -101.844
2235.47, 175.276, -106.966
2219.05, 179.736, -117.32
2221.35, 185.503, -107.072
2234.85, 183.451, -115.935
2238.58, 175.326, -106.376
2246.97, 177.699, -102.874
2246.47, 191.138, -97.9972
2265.16, 177.967, -93.2298
2273.36, 171.144, -116.918
2271.01, 188.018, -112.068
2264.56, 179.517, -105.161
2268.27, 194.91, -104.721
2289.56, 195.89, -104.797
2291.65, 199.347, -105.304
2294.78, 189.757, -82.7722
2297.16, 182.951, -65.8577
2304.28, 172.615, -66.7627
2308.39, 180.458, -63.7146
2322.06, 177.419, -52.0555
2338.82, 180.84, -47.0917
2339.15, 184.57, -39.4522
2344.48, 183.751, -40.5076
2359.04, 167.221, -33.7987
2341.4, 156.903, -39.6244
2347.93, 171.915, -29.5399
2351.77, 184.76, -17.9146
2356.89, 168.142, -21.6993
2373.4, 174.96, -13.9537
2374.48, 180.427, 3.31662
2377.02, 180.866, -4.13678
2392.05, 186.935, -15.7115
2374.86, 173.831, 7.17901
2374.71, 190.212, 9.92968
2375.53, 191.604, 25.7076
2375.42, 181.636, 26.2067
2378.93, 181.245, 15.042
2374.62, 177.212, 15.0346
2370.28, 170.176, 6.23679
2366.34, 168.672, 3.54723
2380.61, 165.35, -0.433516
2376.19, 143.517, 16.7428
2371.13, 140.554, 16.0582
2380.17, 152.371, 28.7044
2388.01, 140.624, 34.7996
2400.24, 140.471, 25.195
2404.39, 137.796, 12.8219
2414.28, 136.071, 31.2284
2413.45, 136.98, 30.7576
2413.98, 133.383, 53.2142
2432, 121.952, 55.4735
2423.59, 111.632, 58.0785
2409.48, 113.681, 61.2788
2409.76, 132.64, 49.359
2414.71, 141.573, 63.3076
2404.2, 137.74, 48.2758
2413.65, 146.845, 53.4771
2414.29, 132.808, 42.1765
2420.86, 122.821, 40.6204
2419.31, 132.623, 37.1567
2426.87, 127.356, 29.1946
2418.59, 130.95, 25.2555
2411.15, 152.98, 51.7634
2411.66, 151.554, 55.8259
2407.03, 128.374, 53.6553
2427.99, 130.53, 63.08
2438.63, 132.764, 66.5961
2433.46, 119.565, 57.0095
2444.93, 129.644, 52.1175
2444.88, 121.324, 44.0815
2452.65, 124.624, 53.1393
2441.99, 130.556, 59.3082
2448.28, 130.603, 60.9277
2456.32, 131.33, 52.893
2458.08, 127.463, 63.0282
2467.17, 134.399, 58.6504
2483.29, 117.094, 51.3733
2486.39, 115.477, 37.0016
2465.66, 129.74, 33.7655
2459.93, 128.056, 23.7451
2465.83, 155.272, 36.7354
2482.99, 170.734, 39.8017
2483.19, 181.783, 46.9745
2503.04, 197.881, 47.5355
2491.01, 185.513, 54.543
2480.6, 187.218, 73.6484
2477.89, 199.295, 70.6525
2460.2, 192.333, 59.4517
2464.38, 195.526, 60.0247
2467.87, 190.508, 48.1103
2478.01, 184.466, 47.0235
2474.9, 181.885, 58.464
2460.27, 191.86, 64.3632
2471.21, 187.147, 65.4225
2463.17, 180.683, 73.9915
2453.94, 182.132, 79.736
2427.39, 183.415, 83.3473
2431.93, 175.761, 96.7404
2434.78, 176.837, 96.9937
2448.65, 160.103, 86.8779
2444.03, 172.151, 74.0258
2450.65, 186.959, 78.3922
2457.57, 174.832, 92.8537
2464.84, 174.968, 82.5991
2464.38, 182.196, 89.7602
2472.48, 181.647, 89.732
2487.61, 192.298, 85.6342
2474.4, 206.746, 92.1621
2468.16, 209.757, 87.2781
2468.97, 220.538, 96.5936
2481.07, 229.297, 92.8908
2477.25, 208.221, 86.8348
2478.2, 204.228, 86.526
2488.12, 211.26, 93.1428
2503, 213.435, 93.5245
2505.75, 226.442, 89.7443
2503.57, 234.103, 90.5227
2505.12, 217.064, 90.1309
2526.51, 206.566, 72.4351
2533.05, 209.84, 70.5297
2542.8, 208.879, 82.0123
2539.59, 223.137, 74.3481
2551.15, 234.71, 69.9743
2561.49, 228.135, 79.9952
2572.64, 222.571, 89.7176
2559.1, 214.909, 73.6761
2558.06, 223.555, 80.1989
2559.76, 214.643, 79.9633
2577.65, 198.818, 74.5926
2584.35, 210.76, 80.5415
2590, 214.77, 95.5238
2580.11, 210.188, 94.7282
2589.37, 207.996, 92.0762
2592.79, 205.936, 73.769
2593.7, 212.711, 72.1751
2589.88, 230.212, 69.7082
2605.5, 234.723, 67.9452
2604.58, 258.052, 71.6342
2612.63, 254.337, 58.8435
2607.9, 254.282, 66.0997
2597.88, 254.971, 68.5672
2588.54, 267.804, 64.9172
2598.17, 277.511, 75.7369
2612.9, 275.601, 78.7296
2606.86, 265.176, 83.9541
2596.17, 254.078, 86.7553
2583.24, 260.517, 92.0343
2564.64, 268.916, 98.7089
2550.08, 265.743, 86.8148
2557.18, 271.46, 76.0964
2567.83, 272.763, 70.538
2552.3, 283.229, 48.8856
2552.07, 294.961, 53.2087
2543.14, 313.346, 50.7519
2555.77, 321.494, 65.1275
2554.1, 325.705, 52.898
2556.2, 326.111, 28.7985
2553.39, 332.649, 14.05
2553.16, 316.103, 1.41222
2549.6, 341.583, 5.8274
2536.67, 339.773, 0.70359
2531.43, 332.109, 3.08874
2518.7, 342.034, 23.7848
2521.75, 328.483, 18.4518
2530.48, 321.735, 23.7531
2532.53, 320.204, 40.9893
2525.3, 320.3, 40.874
2538.04, 309.118, 45.4988
2539.82, 318.506, 51.5389
2528.9, 312.658, 48.3487
2537.63, 307.782, 41.3981
2529.27, 292.001, 44.2983
2525.65, 276.825, 43.4688
2526.83, 295.553, 52.2935
2532.9, 283.95, 50.0179
2531.53, 280.157, 59.0365
2528.46, 300.765, 62.2199
2523.11, 303.632, 57.1323
2525.7, 304.764, 54.3899
2508.2, 311.029, 50.6082
2496.26, 304.049, 32.7913
2509.4, 301.816, 27.8096
2508.66, 322.984, 23.4191
2507.91, 323.59, 26.4704
2501.37, 331.956, 19.9575
2498.19, 325.909, 29.3582
2501.36, 332.484, 31.1128
2500.92, 327.852, 31.295
2489.17, 340.83, 32.9215
2488.79, 323.307, 56.7526
2488.6, 320.557, 42.0331
2486.68, 327.175, 27.2227
2475.7, 311.192, 24.3679
2483.73, 315.311, 27.9626
2478.85, 301.828, 30.3501
2483.86, 278.976, 28.5153
2476.44, 286.446, 11.9158
2488.27, 297.831, 0.205378
2497.78, 292.159, -1.90443
2491.47, 302.639, -8.59092
2475.87, 293.99, 2.77251
2478.88, 307.702, 6.99973
2471.47, 306.563, 17.4153
2466.88, 292.223, 15.9682
2473.85, 285.528, 11.986
2479.53, 277.787, 17.6185
2486.38, 285.109, 18.4228
2488.56, 275.573, 15.1377
2498.43, 290.974, 23.0983
2503.7, 271.29, 18.9418
2499.72, 268.434, 18.6522
2486.92, 259.831, 17.3961
2476.98, 262.765, 1.59897
2465.16, 255.265, -5.88954
2472.23, 246.854, -33.8887
2471.79, 247.34, -41.7904
2472.21, 253.771, -36.4224
2482.37, 241.324, -26.8212
2476.97, 251.869, -40.865
2476.91, 253.959, -48.516
2469.31, 249.601, -37.2227
2470.01, 236.749, -26.6322
2476.88, 229.274, -20.962
2473.02, 238.568, -19.7811
2465.57, 260.115, -20.7521
2452.98, 260.397, -24.6816
2452.78, 267.472, -22.0316
2451.49, 262.981, -28.8401
2454.34, 247.734, -33.6011
2453.2, 255.415, -38.2553
2464.13, 247.378, -33.2397
2464.67, 236.653, -39.3476
2464.17, 245.345, -44.3476
2467.56, 239.545, -39.1134
2462.6, 245.931, -24.4127
2467.08, 251.791, -25.1055
2470.87, 246.216, -33.3032
2474.72, 251.433, -27.6367
2484.89, 284.405, -33.3843
2492.6, 289.66, -37.01
2499, 276.303, -15.0606
2501.84, 280.144, -18.1733
2495.05, 263.913, -13.3428
2498.02, 258.098, -29.9984
2500.31, 255.358, -32.2403
2501.84, 264.264, -41.1862
2486.11, 272.924, -54.5777
2475.43, 276.22, -54.7959
2486.49, 275.639, -46.0374
2475.3, 263.816, -44.5996
2476.03, 277.965, -47.0264
2483.01, 270.331, -29.6624
2481.98, 273.422, -30.7685
2472.48, 274.563, -11.1461
2462.88, 282.335, -10.0214
2455, 265.833, -13.7396
2445.48, 262.107, -10.8187
2446.5, 251.124, 8.28685
2449.63, 240.013, -18.8371
2453.27, 230.336, -24.3979
2453.2, 226.928, -27.9884
2454.47, 240.477, -30.6905
2456.92, 240.768, -16.0367
2441.32, 257.566, -17.7829
2428.42, 242.865, -34.4402
2429.15, 246.673, -31.3166
2432.63, 244.066, -28.4187
2420.61, 249.676, -27.7627
2413.42, 218.15, -18.4455
2404.05, 208.344, -7.42582
2408.68, 220.982, -9.56438
2411.02, 225.953, -2.47445
2397.53, 206.579, -5.33187
2385.85, 213.813, -6.39499
2386.59, 214.51, -15.9842
2373.54, 218.731, -22.4716
2356.27, 218.218, -29.6296
2363.58, 207.399, -22.4905
2369.45, 222.268, -18.465
2363.5, 212.497, -17.2702
2372.11, 202.917, -16.0185
2370.58, 209.334, -27.8153
2386.73, 216.013, -30.2165
2393.34, 200.602, -21.8965
2385.7, 216.216, -13.0753
2368.87, 206.865, -17.6553
2367.84, 213.946, -11.8186
2364.99, 229.969, -20.6332
2364.59, 218.055, -19.0196
2359.16, 206.17, -24.6267
2363.69, 221.024, -4.16792
2350.22, 210.604, -6.76663
2361.66, 193.084, -4.26174
2358.81, 200.261, 1.57722
2362.7, 214.867, 14.5751
2357.47, 226.705, 15.2664
2364.67, 225.372, 30.051
2384.61, 213.699, 26.4394
2382.76, 227.669, 51.2395
2384.17, 233.371, 39.7319
2390.63, 239.517, 41.4872
2399.54, 253.698, 38.8721
2402.41, 252.91, 34.2967
2394.76, 233.312, 38.2514
2400.21, 243.353, 34.1845
2396.39, 256.438, 46.6697
2402.43, 252.858, 43.3139
2394.66, 249.556, 41.6557
2387.27, 241.864, 41.103
2378.11, 244.577, 43.1623
2378.59, 235.687, 51.2072
2367.44, 242.962, 53.8373
2374.91, 242.289, 51.0778
2374.16, 239.951, 53.0685
2364.07, 248.579, 40.8943
2370.39, 245.727, 42.4043
2344.17, 252.032, 46.2726
2344.17, 253.095, 34.3487
2331.79, 241.239, 35.548
2346.91, 266.897, 42.1326
2352.46, 259.775, 30.0328
2340.64, 272.742, 39.2582
2346.42, 258.2, 37.6495
2346.92, 248.272, 42.42
2366.31, 262.181, 21.1384
2381.34, 276.941, 13.0002
2373.18, 285.536, 23.2409
2353.55, 277.124, 18.7386
2343.77, 293.011, 21.6571
2345.7, 294.558, 33.9789
2343.34, 287.17, 22.579
2333.22, 266.097, 26.4883
2331.19, 262.626, 27.9979
2344, 267.595, 26.0531
2349.48, 255.581, 20.7879
2343.15, 254.721, -9.95041
2334.35, 272.703, -8.43642
2354.51, 290.29, 3.58874
2363.02, 288.918, 19.3126
2372.56, 307.722, 19.8371
2376.9, 299.738, 5.00424
2367.1, 303.431, 2.11218
2383.83, 293.705, -3.42832
2385.47, 295.731, -12.2475
2388.32, 296.162, 1.27034
2390, 299.868, 4.16353
2395.38, 304.353, 0.610606
2385.01, 295.189, -11.7624
2379.87, 281.844, -38.5342
2382.18, 290.017, -38.8504
2389.52, 303.469, -34.245
2396.29, 311.465, -50.2726
2399.8, 318.004, -59.699
2411.36, 324.971, -67.2029
2412.89, 342.164, -74.7366
2437.11, 357.156, -77.0965
2435.71, 339.523, -74.0537
2432.72, 337.21, -80.5943
2430.85, 333.965, -95.219
2438.37, 336.003, -94.2529
2439.34, 323.251, -93.7154
2437.35, 322.114, -89.8989
2448.31, 307.121, -90.6079
2452.43, 313.197, -89.0083
2454.55, 312.314, -74.4351
2454.2, 303.464, -78.5115
2452.87, 313.715, -84.5265
2446.29, 312.891, -86.4229
2452.47, 310.828, -67.7447
2448.83, 306.159, -74.0949
2439.61, 297.973, -89.4522
2449.99, 281.307, -101.098
2457.12, 281.807, -89.9039
2452.64, 266.521, -109.926
2455.06, 259.772, -112.464
2436.18, 256.245, -105.724
2430.95, 262.668, -103.647
2428, 264.209, -92.6435
2439.6, 278.95, -81.7878
2427.66, 270.195, -90.8238
2424.46, 276.748, -122.33
2443.06, 286.121, -140.394
2432.22, 278.017, -142.946
2437.01, 289.446, -143.704
2437.72, 276.007, -136.477
2424.13, 278.31, -140.98
2398.5, 267.262, -138.903
2379.75, 258.792, -145.8
2375.62, 251.741, -145.929
2383.22, 236.292, -154.804
2394.59, 237.064, -158.209
2383.51, 244.644, -156.42
2396.57, 242.088, -163.185
2403.27, 237.751, -169.82
2400, 242.2, -154.354
2389.21, 230.142, -160.498
2392.56, 226.741, -161.559
2392.89, 225.656, -166.076
2395.16, 224.555, -169.908
2395.45, 231.857, -173.934
2395.46, 244.857, -179.315
2395.55, 247.364, -185.063
2402.99, 236.633, -181.47
2395.67, 253.31, -185.747
2400.24, 248.962, -188.625
2409.16, 242.53, -192.663
2415.32, 247.463, -201.416
2430.54, 252.871, -201.016
2420.97, 266.066, -175.706
2424.05, 267.822, -179.691
2415.22, 272.512, -187.646
2429.13, 253.277, -185.432
2433.95, 244.37, -192.175
2429.74, 239.221, -204.849
2435.42, 229.991, -210.129
2436.53, 235.137, -230.643
2443.29, 233.574, -219.19
2450.54, 238.341, -212.066
2448.65, 231.567, -202.25
2454.93, 227.243, -184.398
2457.74, 241.188, -194.802
2437.07, 230.73, -210.251
2426.04, 229.872, -199.359
2414.53, 243.278, -195.099
2417.03, 242.442, -194.897
2409.93, 230.583, -191.435
2407.49, 230.01, -193.317
2400.98, 232.925, -188.345
2406.23, 235.794, -186.945
2394.4, 230.25, -178.519
2387.27, 246.67, -179.041
2398.28, 244.18, -181.077
2392.57, 228.839, -184.548
2396.04, 228.148, -172.223
2410.76, 220.431, -177.054
2405.88, 216.057, -182.929
2401.39, 221.821, -195.586
2388.29, 213.467, -198.833
2385.65, 226.878, -215.228
2383.09, 227.3, -215.173
2368.15, 215.138, -225.562
2364.83, 206.081, -223.542
2346.74, 210.503, -214.535
2339.84, 219.492, -219.265
2331.14, 221.657, -216.152
2324.75, 236.459, -215.006
2312.67, 227.42, -215.591
2295.48, 226.562, -214.994
2295.56, 231.017, -199.75
2300.94, 236.77, -197.883
2310.72, 241.675, -182.806
2307.15, 234.699, -192.226
2318.19, 238.745, -180.414
2323.68, 234.397, -178.184
2317.61, 223.95, -178.124
2306.14, 236.657, -175.453
2313.85, 227.359, -180.418
2304.99, 223.845, -203.019
2301.05, 238.279, -210.78
2301.51, 226.066, -228.339
2300.95, 245.883, -233.991
2299.82, 242.647, -223.544
2302.12, 252.753, -235.839
2300.41, 278.143, -237.469
2301.44, 278.153, -232.268
2275.25, 286.478, -236.307
2282.46, 293.429, -212.744
2274.1, 299.199, -200.091
2298.45, 288.726, -181.041
2294.82, 293.864, -186.996
2297.86, 310.242, -180.666
2303.94, 313.749, -190.269
2309, 304.792, -199.297
2306.97, 298.886, -202.985
2311.8, 302.114, -197.049
2324.12, 286.021, -181.025
2324.82, 282.082, -188.971
2305.36, 276.697, -201.882
2299.44, 274.062, -208.957
2301.28, 282.267, -204.888
2315.54, 306.776, -200.693
2328.48, 298.626, -184.073
2327.65, 287.907, -181.221
2332.45, 280.272, -185.641
2332.62, 279.015, -170.732
2339.22, 293.689, -172.474
2339.7, 311.387, -176.584
2354.27, 288.46, -166.067
2351.76, 294.809, -169.143
2346.87, 292.499, -169.074
2345.71, 285.661, -169.451
2358.54, 285.01, -170.896
2362.48, 281.545, -184.717
2370.63, 282.374, -169.081
2370.59, 267.223, -171.635
2363.02, 274.558, -175.353
2361.69, 271.899, -164.326
2379.29, 268.849, -182.272
2368.45, 277.008, -175.703
2382.19, 296.912, -193.705
2383.26, 288.945, -213.068
2396.32, 289.18, -206.338
2400.93, 291.105, -211.123
2407.61, 284.558, -211.804
2412.43, 274.461, -225.616
2410.69, 257.861, -243.433
2402.82, 238.661, -239.61
2395.54, 227.372, -239.639
2391.34, 206.845, -225.567
2390.84, 210.527, -227.917
2386.83, 208.597, -242.475
2386.51, 214.925, -246.28
2373.44, 226.215, -239.183
2370.66, 235.865, -239.707
2367.56, 248.312, -245.572
2363.26, 250.8, -243.627
2370.68, 243.529, -245.944
2369.86, 222.726, -228.021
2371.88, 210.395, -217.042
2363.18, 194.092, -218.953
2359.04, 204.886, -232.29
2352.77, 207.232, -231.925
2343.69, 208.934, -248.262
2338.62, 214.526, -228.255
2353.76, 214.239, -226.172
2374.29, 203.885, -219.282
2360.75, 228.624, -199.593
2367.71, 205.959, -211.198
2369.29, 200.103, -199.596
2358.67, 197.476, -194.499
2349.81, 185.08, -181.322
2363.54, 171.897, -187.666
2367.28, 160.668, -184.77
2384.73, 159, -164.669
2380.2, 167.541, -158.615
2378.53, 174.195, -137.501
2382.13, 171.302, -138.252
2380.58, 183.955, -148.925
2362.21, 201.584, -139.661
2364, 190.576, -153.859
2363.42, 185.667, -160.299
2346.42, 181.862, -142.18
2350.28, 182.231, -147.818
2342.53, 176.134, -159.751
2344.64, 180.023, -167.008
2332.56, 165.767, -172.48
2320.55, 159.859, -174.561
2311.61, 151.247, -171.793
2302.39, 141.542, -160.067
2314.13, 136.155, -159.145
2330.08, 126.91, -156.429
2322.34, 131.081, -151.148
2308.36, 123.812, -158.104
2305.88, 142.456, -133.323
2311.19, 145.399, -136.772
2311.03, 153.508, -130.481
2323.71, 163.152, -120.827
2337.81, 164.555, -115.329
2336.24, 172.025, -139.496
2343.61, 165.407, -134.497
2324.61, 151.718, -122.778
2329.87, 159.905, -126.396
2332.85, 149.678, -141.213
2324.78, 156.178, -124.495
2331.89, 166.614, -121.475
2321.97, 163.431, -114.024
2331.82, 149.351, -122.586
2316.77, 140.05, -120.51
2313.34, 138.999, -114.361
2296, 137.842, -117.323
2319.15, 132.849, -122.074
2322.98, 145.591, -107.463
2309.36, 137.599, -98.9511
2316.93, 140.743, -110.76
2301.61, 145.096, -112.085
2297.09, 142.817, -121.307
2287.27, 143.414, -119.379
2285.25, 146.138, -114.31
2278.7, 153.647, -110.314
2284.27, 145.5, -107.172
2290.95, 153.232, -108.942
2313.32, 153.946, -118.796
2308.24, 144.996, -118.3
2317.56, 126.282, -111.115
2311.97, 115.131, -119.052
2331.36, 136.306, -114.444
2315.16, 134.486, -115.162
2304.66, 126.176, -104.664
2321.61, 123.195, -101.779
2315, 106.288, -90.6225
2315.47, 125.818, -80.1567
2325.05, 121.686, -97.3669
2317.18, 125.02, -107.597
2318.51, 121.801, -112.395
2325.81, 118.561, -116.016
2324.85, 117.507, -129.338
2313.28, 128.424, -120.736
2320.74, 121.506, -145.064
2313.89, 144.46, -133.101
2322.74, 124.04, -129.405
2304.1, 122.558, -136.923
2315.9, 120.722, -152.317
2316.79, 116.546, -143.144
2315.96, 120.498, -154.853
2309.83, 119.012, -145.133
2308.35, 126.534, -131.975
2324.22, 139.048, -123.398
2332.69, 126.02, -105.577
2322.26, 123.327, -85.334
2328.96, 127.309, -89.342
2339.24, 135.697, -96.7836
2357.2, 131.574, -100.623
2351.12, 125.704, -101.434
2357.93, 122.996, -113.745
2347.83, 111.64, -113.633
2348.67, 94.2715, -110.738
2338.48, 101.314, -107.83
2353.11, 105.046, -99.888
2336.55, 84.1479, -89.4418
2336.75, 78.0748, -68.518
2341.92, 85.0033, -61.5494
2348.03, 72.31, -66.7935
2348.41, 68.5239, -74.6106
2349.13, 70.5066, -69.7511
2348.12, 68.4098, -68.8039
2348.24, 68.5589, -68.7531
2363.73, 56.8143, -84.9956
2355.91, 51.3597, -94.7675
2336.02, 77.0664, -100.331
2335.71, 61.5855, -96.6723
2332.08, 70.9172, -112.454
2329.23, 56.6058, -123.385
2330.4, 62.713, -131.545
2337.99, 45.5175, -135.418
2338.66, 50.0918, -135.391
2336.38, 52.7053, -127.457
2325.9, 47.6056, -136.279
2315.03, 63.9256, -144.366
2321.89, 64.868, -141.308
2325.81, 65.3167, -142.617
2328.51, 74.4256, -142.936
2333.9, 76.9332, -145.946
2323.79, 82.1558, -139.745
2323.53, 70.4058, -140.829
2342.05, 86.5887, -129.834
2345.21, 70.7258, -134.191
2337.14, 68.7544, -132.035
2343.84, 77.355, -128.531
2352.08, 70.1551, -129.354
2341.06, 56.6602, -146.482
2315.87, 46.8621, -169.843
2324.14, 58.473, -163.184
2314.69, 54.1382, -161.685
2306.66, 55.9742, -176.895
2312.65, 48.7849, -178.519
2306.92, 32.1039, -170.618
2315.71, 43.6143, -182.973
2315.84, 29.2956, -187.952
2309.23, 30.8466, -190.84
2314.49, 49.7365, -187.178
2314.63, 46.432, -189.464
2307.51, 50.9518, -199.16
2301.26, 36.8979, -199.161
2305.41, 53.5142, -205.875
2296.64, 66.3212, -211.258
2286.77, 77.679, -214.766
2277.46, 76.2256, -211.561
2282.04, 64.9436, -190.526
2278.18, 62.4031, -195.648
2278.93, 60.5319, -197.099
2289.97, 59.0621, -185.586
2294.93, 68.8045, -178.708
2283.7, 69.4989, -183.272
2295.46, 51.9928, -188.716
2303.97, 53.6951, -173.201
2307.97, 53.059, -173.5
2291.27, 47.2398, -174.658
2287.99, 51.4809, -168.155
2275.2, 46.7765, -175.334
2270.01, 51.161, -157.63
2278.94, 60.3757, -164.77
2284.68, 62.062, -184.075
2282.82, 63.6319, -188.424
2284.82, 59.5655, -194.026
2295.13, 67.8854, -189.559
2308.2, 63.1575, -196.607
2314.1, 77.37, -200.567
2320.26, 72.8378, -221.559
2317.8, 62.4851, -211.704
2324.89, 72.0543, -199.499
2315.67, 66.7923, -199.663
2332.67, 73.1632, -198.792
2339.22, 78.1384, -212.763
2321.17, 63.8135, -215.063
2316.66, 57.5019, -212.766
2312.02, 72.6563, -223.723
2313.96, 79.9656, -239.719
2317.5, 83.1802, -226.724
2326.27, 64.6134, -223.023
2329.54, 76.4701, -216.739
2308.47, 86.9527, -213.925
2300.74, 90.0928, -219.565
2305.78, 105.062, -221.032
2302.07, 125.106, -225.155
2317.06, 126.661, -222.455
2324.59, 124.393, -211.272
2344.52, 106.712, -210.577
2346.8, 103.922, -206.968
2358.65, 96.3371, -207.045
2365.08, 103.333, -206.286
2363.03, 95.8687, -223.985
2365.73, 92.6434, -241.796
2369.6, 94.4207, -248.246
2382.63, 89.4873, -243.545
2375.45, 94.3853, -241.467
2376.38, 83.6717, -240.235
2379.63, 75.2557, -237.567
2383.96, 66.6623, -254.632
2377.49, 62.373, -256.866
2374.6, 57.9935, -272.394
2387.84, 53.3985, -257.622
2407.33, 47.0028, -241.125
2400.03, 54.5107, -252.205
2406.12, 63.4905, -248.454
2409.07, 77.5277, -237.48
2409.28, 86.9041, -240.741
2406.67, 85.9543, -241.834
2405.38, 79.6485, -223.205
2397.89, 81.9537, -234.408
2396.21, 82.1202, -233.481
2390.53, 60.6457, -242.174
2394.25, 52.667, -258.997
2400.56, 47.7277, -259.619
2397.57, 54.8732, -268.581
2394.22, 59.6227, -270.268
2392.84, 60.1684, -271.889
2387.82, 60.5511, -248.021
2400.63, 66.5631, -257.859
2388.21, 70.128, -258.325
2375.89, 67.9075, -259.392
2363.69, 56.6852, -255.962
2359.66, 60.8769, -265.856
2348.43, 74.7186, -275.468
2351.5, 51.2808, -271.417
2339.78, 48.8602, -277.375
2341.92, 40.498, -295.991
2357.81, 34.7754, -291.08
2339.16, 37.636, -297.224
2348.14, 32.985, -285.531
2347.21, 42.2156, -275.9
2338.3, 18.0124, -283.752
2335.71, 21.3811, -286.766
2329.23, 17.256, -277.178
2317.09, 23.2341, -277.989
2318.03, 37.9861, -268.629
2322.09, 42.2941, -280.036
2298.24, 20.067, -275.895
2304.82, 25.8824, -274.378
2312.09, 37.6048, -267.158
2318.17, 33.4322, -279.618
2329.13, 46.3185, -277.832
2326.13, 49.5232, -287.848
2340.09, 74.2381, -281.633
2341.49, 79.4411, -305.628
2348.99, 80.5265, -327.065
2356.46, 88.0627, -309.989
2340.57, 94.4265, -310.544
2337.24, 103.665, -309.065
2330.79, 111.133, -305.335
2335.28, 109.86, -310.545
2339.76, 104.59, -284.722
2331.46, 92.8542, -262.756
2339.81, 87.6137, -259.399
2331.28, 90.4349, -265.964
2315.56, 92.1385, -279.487
2310.6, 93.8772, -273.904
2306.36, 105.59, -272.377
2309.16, 93.1806, -250.339
2330.31, 104.98, -239.596
2319.5, 104.828, -238.234
2326.62, 85.5342, -229.498
2330.81, 105.27, -231.164
2306, 105.432, -239.385
2314.58, 107.736, -235.741
2332.16, 116.284, -239.046
2346.07, 111.166, -237.072
2346.59, 107.328, -241.324
2350.61, 94.0746, -247.234
2333.17, 92.9485, -246.909
2365.11, 96.5316, -244.785
2364.46, 87.5284, -224.155
2361.88, 87.8735, -218.888
2371.18, 77.2175, -219.923
2362.05, 95.3383, -200.465
2364.33, 94.2312, -186.245
2375.39, 94.4245, -177.184
2380.69, 96.0725, -178.022
2399.27, 102.576, -182.654
2403.27, 86.4791, -187.332
2390.42, 96.9925, -171.063
2393.93, 108.495, -173.582
2387.04, 116.563, -176.426
2382.65, 128.87, -164.669
2368.52, 127.925, -178.068
2359.24, 132.977, -174.772
2354.28, 140.452, -188.33
2351.36, 137.466, -176.373
2365.07, 152.561, -168.894
2360.22, 147.029, -164.895
2380.94, 145.347, -164.541
2374.55, 127.303, -174.372
2370.49, 125.942, -167.131
2376.57, 116.289, -174.54
2350.38, 119.802, -158.604
2361.61, 109.5, -158.953
2355.36, 97.5171, -153.014
2356.8, 98.0345, -157.726
2361.73, 92.9415, -153.58
2383.79, 89.1699, -146.104
2397.27, 85.4579, -154.37
2394.25, 83.0891, -158.451
2388.7, 68.7604, -164.998
2370.13, 60.925, -168.468
2356.34, 54.164, -162.363
2348.67, 48.9335, -165.235
2351.13, 39.6397, -170.995
2353.05, 52.3905, -187.482
2340.43, 54.9739, -191.242
2336.56, 63.214, -188.873
2330.6, 47.8532, -174.469
2337.15, 30.9117, -178.332
2342.32, 35.6741, -174.889
2343.19, 41.6526, -167.376
2339.56, 31.0774, -190.821
2328.77, 26.2643, -195.692
2344.86, 22.0084, -204.163
2333.77, 24.3556, -197.322
2342.57, 18.3008, -197.304
2348.76, -10.637, -206.679
2363.76, -8.01279, -200.248
2376.6, -6.27646, -191.598
2378.21, -22.2668, -197.572
2380.48, -29.8286, -187.793
2377.6, -36.2027, -192.802
2360.68, -17.2395, -189.954
2373.91, -23.2846, -197.422
2375.36, 10.0114, -185.865
2387.36, 6.91075, -197.301
2370.87, 3.38339, -191.944
2368.72, -1.57172, -206.947
2373.68, -9.32794, -203.809
2382.43, -15.6055, -224.388
2383.88, -8.4689, -220.274
2388.05, 1.00219, -211.476
2385.38, 11.5196, -196.763
2373.76, 8.01983, -200.418
2369.84, 23.4743, -194.552
2361.71, 27.0265, -185.727
2364.38, 32.2065, -181.038
2359.89, 29.3715, -190.406
2350.67, 25.7245, -177.03
2353.84, 20.2588, -163.149
2348.61, 19.3806, -163.066
2348.05, 9.35724, -179.374
2345.7, 3.34352, -181.555
2348.88, 23.9345, -182.874
2362.35, 28.5951, -171.544
2380.23, 32.5173, -168.098
2384.38, 49.853, -167.313
2364.02, 55.0758, -167.058
2366.64, 70.2175, -162.386
2355.07, 73.3334, -165.654
2365.51, 49.9437, -166.98
2359.89, 55.6015, -177.432
2336.85, 52.1388, -180.464
2332.3, 72.1387, -172.364
2338.81, 63.7845, -146.062
2340.99, 61.8361, -153.449
2354.62, 58.4835, -161.358
2352.29, 49.4265, -157.947
2354.48, 36.9324, -183.849
2348.07, 57.2194, -180.829
2363.91, 73.9183, -186.702
2373.24, 66.5603, -181.26
2363.2, 64.6415, -174.357
2376.06, 72.2156, -181.705
2356.51, 60.7621, -163.533
2359.55, 59.2824, -152.452
2360.89, 60.9725, -156.078
2376.12, 73.0229, -147.173
2380.07, 74.4947, -139.633
2382.19, 84.0241, -127.901
2363.09, 83.1021, -137.725
2351.15, 68.6827, -137.036
2361.22, 76.8669, -148.483
2359.1, 74.6145, -146.773
2338.55, 77.2322, -142.379
2350.61, 86.1891, -152.355
2356.02, 68.2092, -147.801
2352.37, 71.79, -144.357
2337.2, 75.6994, -124.438
2347.69, 61.5985, -120.789
2353.89, 63.7417, -128.499
2351.77, 68.7039, -117.422
2356.55, 77.2845, -126.558
2356.49, 71.9382, -126.748
2362.37, 62.6831, -125.22
2356.01, 50.8355, -135.956
2356.81, 52.3217, -146.21
2357.17, 36.7168, -159.138
2359.97, 41.3604, -154.893
2357.83, 50.2996, -165.318
2352.93, 43.8079, -172.615
2348.37, 53.0327, -168.708
2359.28, 35.1181, -176.873
2350.83, 32.1558, -178.783
2350.56, 9.31245, -199.702
2334.76, 10.6841, -197.394
2330.98, 23.4273, -209.095
2309.86, 37.518, -229.289
2315.6, 37.286, -231.845
2333.83, 52.0779, -246.071
2334.2, 42.9958, -235.414
2339.35, 36.2637, -228.381
2340.62, 32.9704, -251.219
2337.07, 38.5395, -238.297
2325.34, 24.8767, -235.356
2327.33, 22.1433, -236.365
2328.81, 28.3075, -233.138
2316.73, 29.4218, -226.458
2314.78, 22.7782, -259.465
2307.38, 2.28975, -258.049
2304.37, -0.15078, -252.61
2302.22, 10.0149, -249.92
2305.33, 9.373, -250.246
2287.83, 1.12748, -252.09
2281.28, -1.33368, -254.878
2271.68, 1.05509, -250.77
2278.54, 3.80739, -256.718
2265.73, 6.68217, -267.543
2259.28, 18.6581, -279.57
2273.96, 19.4347, -287.168
2267.53, 12.0109, -303.355
2279.21, -3.91005, -302.009
2279.87, -15.1385, -305.645
2279.39, -13.8889, -293.091
2273.77, -1.7944, -304.636
2267.89, -5.29318, -298.978
2275.86, -11.0389, -288.337
2289.77, -20.3838, -301.279
2287, -9.18467, -322.791
2283.64, 5.61798, -332.378
2280.93, 15.9975, -342.51
2277.92, 9.56577, -325.386
2293.27, -1.22473, -321.549
2278.97, -8.05274, -323.123
2284.08, -7.32244, -309.195
2300.11, 6.16908, -299.722
2299.68, 2.24124, -299.084
2298.57, 15.1665, -300.458
2311.94, 8.48351, -282.144
2306, 18.5379, -287.804
2316, 29.699, -288.961
2318.15, 30.2047, -293.707
2299.97, 30.3821, -275.172
2296.61, 19.396, -273.299
2292.98, 26.2739, -277.083
2296.77, 23.758, -293.619
2292.44, 13.5343, -290.308
2287.93, 2.58874, -282.174
2267.21, -11.5603, -291.44
2265.23, -3.40187, -302.515
2234.42, -4.79555, -299.54
2231.28, -8.20786, -296.043
2215.43, -2.07142, -307.055
2200.86, -1.31728, -307.637
2207.74, 6.26969, -303.361
2216.89, -10.7776, -292.71
2206.54, -10.7598, -309.329
2214.29, -6.13596, -312.089
2232.57, -17.2706, -307.717
2235.88, -20.4547, -293.92
2236.79, -17.2491, -287.789
2241.81, 0.598663, -281.794
2237.01, -15.5854, -305.754
2239.83, -20.6144, -281.105
2228.11, -18.1764, -282.636
2225, -24.1433, -284.429
2216.24, -25.5029, -295.564
2205.17, -11.5638, -293.529
2204.15, 1.91668, -282.491
2203.84, 8.63139, -285.181
2214.15, 6.99916, -271.534
2221.55, 12.5677, -260.036
2202.21, 10.8934, -275.742
2198.74, 23.8481, -276.09
2184.87, 39.9027, -280.488
2184.23, 22.1379, -267.598
2192.45, 18.1317, -273.089
2195.7, 16.6742, -263.796
2180.75, 24.2587, -266.642
2175.25, 18.3008, -263.461
2165.03, 22.033, -265.295
2165.08, 27.6278, -281.287
2158.79, 14.8967, -274.141
2160.59, 12.9164, -273.291
2174.14, 5.53209, -281.73
2176.39, -2.31204, -279.644
2185.35, -2.06615, -277.614
2188.98, -22.7404, -273.722
2187.53, -15.5939, -278.516
2193.87, -14.1968, -278.99
2192.17, -17.7154, -269.518
2189.86, -2.86984, -280.902
2185.72, -9.21589, -285.88
2186.47, -4.79863, -284.236
2178.73, -16.8299, -294.682
2184.16, -32.8385, -311.841
2181.97, -32.1435, -327.493
2204.19, -34.7009, -313.627
2215.45, -25.5727, -319.259
2233.49, -21.2694, -319.358
2220.62, -6.61581, -320.624
2216.92, -13.1893, -321.69
2214.05, -22.3815, -327.67
2202.1, -12.1333, -326.224
2195.56, -24.7918, -341.083
2193.18, -18.3418, -345.382
2180.31, -16.8594, -340.35
2166.86, 3.96152, -350.516
2162.89, -14.8411, -348.169
2166.89, -14.72, -335.834
2171.71, -15.8652, -333.098
2181.65, -16.7221, -333.357
2178.62, -16.6345, -336.816
2196.19, -5.45922, -318.898
2190.13, -16.0043, -322.02
2195.35, -20.7404, -306.667
2220.13, -18.2349, -316.94
2214.16, -21.1592, -313.299
2192.28, -24.9195, -302.08
2188.16, -4.75946, -320.91
2194.25, -15.5873, -309.588
2165.26, -0.775097, -299.175
2157.67, -12.9812, -291.244
2130.46, -4.44588, -288.836
2139.56, -9.81024, -295.081
2136.86, -6.10756, -299.427
2142.18, 3.02183, -300.226
2150.33, 3.04274, -292.434
2160.03, 5.11432, -293.166
2147.65, -1.8938, -285.868
2156.44, -18.2085, -299.84
2168.33, -14.633, -309.075
2164.14, -12.5501, -303.957
2171.17, -17.498, -308.565
2166.6, -17.3696, -305.94
2177.93, -35.4847, -304.863
2175.32, -31.9848, -306.488
2166.67, -18.202, -305.991
2181.53, -14.2496, -332.372
2173.02, -22.4871, -337.574
2181.46, -28.707, -331.653
2181.81, -26.0959, -308.767
2195.97, -35.4172, -298.32
2193.12, -27.6683, -294.812
2188.56, -22.6599, -311.959
2203.46, -5.76863, -324.214
2215.34, -5.91273, -317.249
2198.17, -10.6008, -299.35
2202.24, 3.69638, -293.671
2207.73, 5.20119, -290.495
2206.09, -15.3388, -289.858
2190.5, -31.2919, -281.679
2180.58, -28.7058, -276.957
2176.26, -25.4451, -282.766
2158.9, -22.3509, -269.823
2164, -6.27426, -262.956
2152.44, -14.4322, -274.436
2158.25, -17.5368, -280.118
2144.62, -22.3476, -272.743
2149.28, -26.2967, -273.145
2143.88, -35.2373, -271.326
2154.86, -7.36489, -258.93
2142.31, -18.3618, -250.691
2141.3, -30.8147, -240.374
2123.74, -28.5549, -228.789
2121.13, -40.5722, -211.812
2119.16, -44.7511, -198.757
2137.3, -51.2812, -187.471
2141.17, -46.3889, -204.881
2140.8, -69.8441, -214.55
2146.51, -68.4883, -220.796
2148.41, -80.0369, -222.12
2148.87, -70.2038, -221.095
2164.27, -49.3995, -217.059
2167.79, -56.0521, -218.376
2167.99, -61.6012, -222.202
2183.82, -53.8151, -229.709
2180.99, -60.6809, -247.124
2172.13, -57.1177, -249.324
2173.67, -54.3627, -250.743
2173.68, -59.8805, -244.335
2175.81, -63.6457, -244.55
2197.53, -72.2477, -228.673
2182.06, -77.8698, -224.463
2179.97, -86.79, -232.863
2164.62, -106.456, -219.308
2161.22, -100.582, -208.008
2157.16, -99.3215, -211.122
2173.25, -109.157, -209.61
2167.45, -115.17, -215.283
2186.87, -129.93, -222.813
2175.56, -144.858, -225.264
2187.48, -137.508, -212.267
2169.7, -139.432, -216.416
2180.53, -155.659, -209.422
2185.97, -158.85, -213.569
2167.21, -165.174, -202.043
2162.52, -168.564, -189.661
2177.05, -165.987, -176.358
2176.84, -158.392, -186.595
2162.77, -158.382, -208.616
2175.94, -161.255, -223.919
2177.61, -156.071, -207.687
2171.11, -140.592, -204.128
2179.81, -132.744, -201.475
2160.9, -123.252, -229.796
2157.77, -110.9, -233.562
2141.81, -136.259, -252.528
2151.33, -138.547, -244.472
2154.41, -132.252, -241.743
2147.35, -120.183, -235.169
2155.62, -124.399, -246.876
2152.03, -128.447, -242.366
2149.52, -125.19, -223.407
2156.89, -128.445, -221.675
2170.84, -126.7, -220.319
2180.67, -129.956, -217.77
2183.7, -124.732, -223.374
2178.4, -133.909, -219.177
2169.03, -138.829, -223.02
2163.29, -149.134, -237.697
2148.85, -146.566, -233.32
2142.93, -147.394, -230.843
2137.69, -152.916, -225.904
2138.75, -155.882, -244.111
2162.81, -142.689, -252.553
2163.75, -148.803, -252.266
2158.73, -158.449, -264.402
2151.53, -160.427, -263.668
2158.61, -167.902, -273.367
2155.56, -168.413, -267.605
2160.77, -176.763, -284.602
2163.72, -181.818, -291.068
2152.8, -176.696, -307.18
2156.8, -159.368, -310.535
2158.8, -161.131, -332.594
2168.55, -163.615, -340.398
2153.86, -172.95, -326.689
2155.31, -167.765, -318.794
2143.27, -165.655, -311.816
2138.42, -177.578, -333.282
2113.75, -165.211, -328.011
2098.64, -166.749, -310.328
2091.76, -170.957, -302.001
2083.25, -166.559, -287.027
2085.91, -186.796, -292.033
2074.87, -200.203, -297.84
2071.66, -202.666, -292.527
2060.88, -203.394, -301.167
2088.02, -207.873, -289.759
2073.37, -202.437, -308.934
2067.04, -217.113, -294.96
2076.99, -219.389, -282.413
2070.41, -203.558, -292.453
2067.19, -201.88, -283.865
2076.56, -198.222, -282.802
2083.58, -200.818, -281.602
2088.39, -202.803, -279.394
2090.61, -203.169, -256.484
2093.89, -189.596, -260.84
2090.05, -191.006, -247.436
2100.26, -181.287, -264.011
2088.77, -184.441, -278.387
