0.299025, 0.468529, -1.61392
2.54839, -1.20551, 0.420969
0.231313, 0.834054, -1.16849
-0.436749, 0.243242, -0.341634
0.199913, -0.315838, -0.150242
-0.910446, 0.922852, 1.06181
0.595552, -0.549716, -0.698489
-0.00235794, 0.0236887, 1.91987
-1.15087, 1.48485, -1.34581
0.679495, 0.413201, 0.475875
0.329229, -1.08322, 0.373951
1.52732, 0.691876, 0.425211
2.424, -0.97207, -1.10294
0.465115, -0.218976, -0.203796
-0.0681771, -0.339099, -0.151798
1.89186, -0.802921, -1.91709
0.00877775, 1.37113, -0.872768
0.218487, 0.12025, 0.492877
-0.122801, 0.34757, 0.102165
-1.9474, 1.61589, 1.63696
1.58984, -0.630635, -1.00436
0.867294, 1.97681, 1.5646
-0.0238693, -0.0331667, -0.195526
1.03868, -0.507576, -0.359883
0.291466, 0.825169, -0.565162
0.44628, -0.352323, 0.0129285
-0.177192, -0.551147, 0.654581
-0.143561, -0.374321, -0.24265
1.77758, -1.422, -2.94586
0.984696, -0.312321, -1.0571
-0.577343, -1.92329, 0.440122
0.393103, -0.242967, -0.0923319
-0.352804, -0.185601, -0.174766
0.515916, -0.410723, -0.424148
-1.51117, 0.31233, -0.56387
-0.841825, -0.790439, -0.586382
-0.723217, -0.0540783, 0.0498666
-0.884436, -0.0214803, 6.01671
-0.0965848, -2.18238, -0.04191
-0.24609, 0.196143, -0.0671153
-0.481709, 0.630378, 0.950092
0.593641, 2.80217, -1.66393
-0.243016, -0.748374, 2.69348
-0.368761, 0.028885, -1.25808
0.882788, 0.801091, 0.0807534
-0.0191327, 0.492751, -1.07031
-2.08027, -0.364365, -0.897383
-0.989071, 0.850474, -1.09725
-0.218507, -0.605956, 0.670424
1.18742, -0.935039, -0.90871
-0.31495, 0.65493, -1.07102
1.21473, -0.160924, 1.04983
-0.422464, 0.503698, 0.769259
0.0619839, -0.00230056, -1.54434
-0.448905, -0.414109, 0.324734
-0.790412, -0.2263, -0.209269
-0.920071, 0.542124, 1.34718
0.14991, -0.388922, -0.277362
0.978486, 0.22793, -0.161513
0.280752, 0.251053, -0.678445
0.601885, -0.269462, -0.201913
0.308795, 2.60751, 0.343493
0.800713, -0.0842259, 0.123334
-1.14477, 1.38309, 0.451976
-0.516818, 0.0236626, 1.00587
-0.384296, -2.38218, 1.54531
-0.875757, 0.693608, 0.16866
0.196571, 0.563932, -0.175555
0.430244, -0.804037, -0.2634
0.302006, 1.22882, -0.395232
2.44047, -1.89901, -1.9492
-0.576887, -0.171547, -0.0698108
-1.88589, 2.04963, -0.99058
-0.294835, -0.313696, -1.44479
-0.636903, 0.23394, 1.57582
-1.46593, -0.0475849, 1.072
-0.248411, 0.629636, -2.04215
0.604638, -1.32876, 0.259298
0.136231, 0.0872528, -0.032415
-1.21553, -1.93031, -0.029351
-1.78077, 0.872183, 0.847433
0.541199, 0.199267, -1.09606
0.708038, 0.678448, -0.124898
-3.23116, -0.573268, -2.60563
-1.24364, -0.731013, -0.232159
-0.633176, 0.145606, -0.0127888
0.848513, -1.14789, -1.58426
-0.233668, 1.34687, -0.953594
0.127231, 0.0957539, 0.580532
0.288708, 0.793141, 1.06146
-0.30843, -0.144524, -0.582372
-0.0708765, 0.487308, 0.115274
1.87764, -0.306389, -1.75918
0.664955, 1.3437, 1.55211
-1.15213, 0.450526, 0.252501
0.715994, 0.0710157, -1.19341
-0.114432, -0.0285492, 0.863438
0.201202, 0.156041, 0.280719
-1.30866, 0.769133, 0.952631
0.644457, -0.624309, 0.281452
-0.69762, -0.0237579, -0.0846407
-2.80048, -1.32472, -1.2417
-0.36421, -1.46307, -0.00717763
-0.0733544, -2.3807, -0.547578
-0.718312, 0.559272, 0.433222
0.283365, -0.0821362, 0.0467372
-0.52704, 0.180934, 0.411931
0.893873, 1.02453, 0.416903
0.538226, -0.0501545, 0.739202
0.19936, 0.668602, 0.084723
-1.8585, 1.1612, -0.377781
-0.676112, -0.0810069, -1.57353
-0.869498, -2.01998, 0.132163
1.00523, 1.48177, 0.637509
0.382289, 0.374017, -0.120428
0.315824, -1.73738, 0.509513
0.739883, 1.16807, -1.02871
-1.29188, -0.608444, -0.358911
0.833926, 0.23199, -0.438645
-0.615733, 0.00505881, -0.304492
0.0719896, -0.467813, 0.1556
1.53495, -0.712161, -2.34073
0.607943, 0.283483, 0.368928
-0.202096, -0.898358, 0.76824
-0.806437, -0.202738, 1.85496
1.73097, 0.749119, -0.395792
-3.64817, 1.77975, -0.542329
0.52321, -0.463954, -0.417707
0.35596, 0.182422, -0.298784
0.572492, -0.134675, 1.94299
0.0814661, 0.0980934, 0.22024
-0.121086, 0.262015, 1.09193
0.260607, 1.49132, 0.43357
0.840558, 2.62358, 1.29101
0.7821, 0.408069, 0.173933
-0.290833, 1.5291, -0.757546
-1.31197, 1.48629, -2.69684
0.203505, 0.383637, 0.221766
0.53585, -0.0452794, -0.363757
-0.452892, 1.06383, 1.39698
-2.94069, -0.910507, -0.565581
-1.15313, -0.59819, 0.973348
0.750791, -0.275351, 0.0737748
0.180543, 0.39065, 1.17143
0.256161, -0.237592, 0.459145
-0.702705, 0.652855, -0.0368567
0.0361042, 0.0114944, 0.40679
0.351701, 0.44834, 0.0995775
-0.308943, -0.233679, 0.199265
-0.0954501, 0.00775563, -0.752017
-0.491887, 0.0602125, 0.736727
1.81061, -0.527918, 1.37769
-0.383267, 0.844653, -1.97223
0.622343, 0.602457, 0.522161
-0.158903, 0.189283, 0.520517
0.135689, 0.472718, -0.0604241
0.506721, -0.578325, 0.533656
2.19745, -0.169291, 2.22552
1.16783, 0.371755, -0.316563
1.03235, 0.310845, 0.649964
0.870944, -0.325581, 0.794982
-0.218029, -0.706582, -0.0941106
1.81727, 0.115347, 0.938952
0.185916, -0.962132, 0.840507
0.50638, 1.02387, -4.28917
-0.0823569, -0.678889, -0.378065
0.00324102, 0.0974289, -0.367044
0.236424, -0.355525, -0.764223
-0.0791657, 0.270106, 1.19703
1.00773, 0.616396, -1.92252
0.46673, 0.254375, 0.590529
-1.05829, 0.107748, -1.05169
-0.0724157, -0.30861, -0.348645
-0.305343, -0.335028, -0.160715
-0.0305241, 0.522586, 0.678179
0.602687, -0.844338, -0.495205
-0.735807, 0.263814, 0.878786
0.235853, 1.83413, -0.415304
0.435363, 0.19439, 0.0260904
2.1182, 1.16808, 1.86409
-0.502251, 0.129963, 0.296526
-0.988598, 1.60301, -0.283555
-1.01839, 0.956804, -0.0164652
-0.548804, 1.50106, -2.06105
-2.23262, -0.132201, -0.546198
0.533246, 1.70519, -0.866944
0.577223, -0.784382, -1.56895
-1.62477, 1.11648, -0.765001
-0.987393, -0.380535, 0.0533008
-0.581016, -1.52367, 1.09786
0.243008, -0.239049, 0.137879
1.30966, -0.472266, -1.61742
0.80024, 0.416494, -1.17699
0.0371686, 0.336884, -0.229262
-0.584641, 0.29453, -0.771528
-0.804249, -0.622698, -0.477608
-2.11006, -1.1755, -1.2532
-0.966685, -0.258809, 0.63684
-1.94119, -1.18954, 0.817791
-0.423295, 0.0198711, -0.16475
-0.65849, -0.114081, 0.405407
0.460258, -0.904615, 1.69457
0.167507, -0.0390457, -0.349255
-0.740967, 0.193158, 0.349871
-0.29339, -0.885969, 0.532629
-0.578173, 1.99784, 0.203383
0.604893, 0.1107, 0.203601
0.431434, 0.0793143, 0.518931
0.0906976, -1.36579, 0.393098
-0.159213, -1.30408, -0.306343
0.0970276, -0.470484, -0.10471
-1.29144, -0.344546, -0.128227
0.674881, 0.39346, -3.34784
-0.331833, 2.19215, -0.789984
-0.0280086, -2.09097, 1.23946
2.22024, 1.56886, 1.37909
-1.91728, -1.6012, 2.72089
0.739589, -0.438748, 0.545757
-0.187429, 0.149236, -0.657227
0.674186, -0.471333, -0.928889
0.471067, -0.685065, 0.743342
0.85011, -0.3978, -0.247024
1.28088, -0.478882, 2.69433
-0.998431, -0.696042, 0.399934
-0.0158619, 0.871577, 0.357844
2.26689, 1.20171, -0.5547
2.34459, 0.665835, -0.0885412
0.162266, 0.126724, -0.464707
0.251861, -0.321465, 0.0215251
1.35525, -0.423273, -0.385947
0.0886849, -0.478867, -0.986075
0.650421, -0.414474, 0.794512
-0.124578, 0.149873, -0.405613
-0.236179, -0.302847, 1.8735
0.0666584, -1.65507, 0.261831
1.56535, -0.211055, -0.52434
1.41819, -0.424635, 0.710212
-0.625306, -0.651178, 0.458077
0.332147, 0.450521, 0.0658065
0.239858, 1.16328, 0.243911
0.237742, 0.339985, -0.668113
-1.49175, 0.903896, -1.21773
-0.761615, 0.394656, 0.00207069
0.964738, -1.66109, -0.407674
0.214638, 0.70123, -1.24829
0.441963, -0.142624, -0.620627
-1.23021, -0.502827, -0.198882
0.335503, -0.55934, 0.248952
0.473309, -1.15845, -0.911353
-0.109897, -0.100029, 0.509106
0.433943, -0.637771, 0.495458
-1.1295, -2.12194, 0.340655
0.733628, -0.357065, 0.0499057
-4.45818, -3.69985, -2.07382
0.177298, 0.0490994, -0.0698012
2.01041, -0.0716942, 0.932203
0.924983, 0.798859, 1.13385
-0.7025, 2.05905, -1.53638
2.89069, 0.139712, -1.00545
0.568781, 1.98005, 0.395961
-0.104282, 1.10209, -0.242036
-0.178645, -0.519914, -1.98671
0.50411, -1.76616, 1.24695
0.0297622, -0.564721, 0.455542
0.0413861, -0.928337, -0.838041
0.630981, 0.467113, -0.0546915
0.0203559, -0.131359, -0.513675
0.484379, -0.352956, 1.04932
-0.900127, 0.259273, -0.124333
0.0592983, 1.13747, -1.30502
0.527177, -0.181915, -0.0570037
-0.791468, 0.469613, 0.374587
-0.121237, 0.66746, 0.125525
0.55884, 0.0762096, -0.298394
0.0790272, -1.52893, 0.167177
-2.98326, 1.34775, 1.12114
-0.790102, 0.0844265, 0.111706
-0.198044, 1.20518, -0.371126
0.837223, -0.851003, 0.184594
-0.487203, -0.28238, 0.115498
0.259147, 0.731727, 0.676177
1.07641, 0.564762, 1.15475
0.359773, -0.760258, 0.160206
0.226573, -0.351912, 0.340192
0.155744, 0.338784, 0.328748
-0.249662, 0.153901, 1.70003
0.117479, 1.11939, 0.0067818
0.495117, -1.09726, -0.875711
-1.30664, -0.559459, -0.39636
-0.799954, 0.625147, -1.54587
-0.451588, -0.662711, 1.21261
-0.880358, 0.874749, -0.8678
1.27409, 0.0101833, 0.596106
-1.96845, 1.22445, -1.46623
0.354723, -0.605764, 0.0712283
-0.0248347, 0.915486, 0.953522
-0.946637, -1.01216, 0.359684
0.000853632, 0.904474, 0.301973
0.0558907, -1.24048, 1.08212
-0.545757, 0.696785, 0.499477
0.746958, 1.85924, 0.046011
-0.066542, 1.02996, -0.37343
2.98458, 0.501519, -0.905159
2.00092, 0.0691023, -0.634034
-0.839797, 0.236215, -0.997917
0.335366, -0.439834, 1.38048
-0.865638, 0.252691, 0.255134
0.825474, -1.82563, -2.15801
0.557462, -0.506712, 1.49018
-0.157889, -0.133847, 0.890822
0.576932, -0.689546, 0.849723
0.650533, 0.238145, 0.946053
0.364687, 0.0183547, 0.288519
0.58757, 0.505996, 1.01835
0.0065866, -0.427948, 0.173352
-0.844673, 1.62294, 0.382117
1.25912, -0.713159, 1.19864
0.316844, -0.98455, 0.641617
-0.535252, 0.844736, -0.80531
-1.43442, -2.12775, -0.0734634
0.690753, 0.582275, -0.881427
0.472643, 0.514538, 0.681005
1.2734, 2.17125, 2.21372
-0.760991, -0.62748, 0.00877806
-0.956775, 2.09431, 0.646723
1.16824, 2.52703, -0.270061
1.55601, -0.369052, -0.0859069
-2.58821, -0.657852, 0.526397
0.0265719, 0.603767, -0.372692
0.0917634, -0.00728531, 0.189514
0.289749, -1.71659, 0.111683
-0.367443, 0.193189, 1.09495
-0.418448, 2.19153, -0.45046
0.759958, 1.1945, -0.403829
-0.594294, -1.2069, -0.35375
-0.531257, -1.36821, 0.72812
-1.13465, -1.02212, -0.261538
-0.352867, -0.441582, -0.134218
0.0294629, 0.31307, -0.183884
-1.49864, 0.181801, 0.203714
-1.3096, -0.904479, 0.101375
-0.772896, -0.950493, -0.469762
-0.349881, -0.308924, -0.349986
-0.845906, 0.505797, -0.591438
0.462936, -0.317149, -0.172848
0.393487, -1.06866, -0.692847
-0.712833, -0.0792826, 0.0789447
0.183682, -0.252557, -0.685091
0.0562045, -0.157088, -0.39543
-0.90177, -0.0252697, -0.527752
0.45493, -1.20379, 0.180678
-1.51207, -1.74835, 1.31989
-1.18463, -0.339646, -0.291684
1.20048, 0.144224, -0.614483
-0.253911, -0.443352, 0.32229
0.22014, 0.48566, 0.533869
1.02008, 1.51237, 0.0697531
-1.88716, -0.193965, -0.691812
-0.346782, -0.465042, -0.179179
0.563217, 1.91434, 2.38494
-2.18625, 0.932354, 0.347287
0.836415, 1.15602, 0.958545
-0.238248, 0.0742676, -1.0221
-0.92616, 0.79734, 0.892329
-0.592449, -0.392221, 1.09434
-0.315749, -1.9362, 0.00851147
-0.0836363, 1.09821, -0.705817
-0.904209, 1.37175, -0.241837
-0.823735, -0.550417, -0.153279
-0.885997, 1.25243, 0.252001
-0.0639167, 0.106763, 1.27465
-1.25825, -0.0014306, 0.380031
-0.365841, -0.208281, 0.340716
0.849862, -0.391458, 1.1661
1.29657, -1.48588, 1.75463
-1.31784, 0.145708, 1.65121
-0.844035, 0.0669684, 2.42453
-0.698015, -1.0327, 0.726144
0.009821, 0.336157, -1.02938
0.338308, -0.485328, -2.34031
-1.93231, -0.261111, 1.29833
0.110919, -0.385172, -0.458098
-0.158416, -1.36281, -0.895329
-0.726574, 0.182785, -0.477273
-0.198953, 0.502858, 0.61938
0.0167092, -1.15222, 1.77103
1.03754, 2.72679, -0.275889
1.11267, -1.60165, 0.637142
-0.810051, -0.860817, 1.87859
-0.270255, -1.39458, 0.484901
-2.98615, -1.78821, 0.364506
0.362162, 0.621302, 2.33317
2.72996, -0.848866, 2.15551
0.0157371, 2.01691, -2.49418
-0.223031, 0.171057, -1.01661
0.493055, 0.653201, 0.273971
0.0502791, 1.62569, -1.97871
-0.609946, -0.909775, -0.157111
0.729977, -0.0255281, -0.413021
-0.0716405, -0.186934, -0.745986
-0.137434, -0.0590923, 0.250048
-0.532779, -0.281136, -0.293951
0.655206, -0.765635, 1.7771
0.0475917, -0.573641, 0.973361
-0.689483, 1.16414, -1.13512
-0.00222891, -1.0521, -0.177143
0.333502, -1.00647, 2.01898
0.231254, 0.420681, 1.97954
-0.360464, 1.00148, -1.57454
-0.962184, -0.176055, 0.0393472
-1.24853, -0.43431, 0.0846224
1.93637, -0.4909, 1.88456
2.51271, 1.96126, 3.61167
2.05916, 2.21255, 0.386371
0.195085, -0.00916001, 0.752063
-0.868723, 0.638634, -1.63722
-0.144241, 0.391388, 0.351912
0.832849, 0.877931, 2.1348
0.244583, 1.21865, -0.309754
-0.280104, 1.43364, 0.920939
-0.465347, -0.449165, 0.92682
0.0188772, 0.855683, -0.288054
-0.345543, -0.21198, 0.276205
0.408301, -0.022535, 0.162628
-1.71715, 0.515387, -2.63422
0.711992, -0.0704805, 0.113811
-0.781573, 0.712537, 0.246835
-0.83614, 0.514201, 0.461618
2.00824, 0.267883, -0.0320808
-0.320575, 0.660063, -0.180644
0.0777967, 0.761965, -0.0885212
-0.0296614, -0.631583, 0.349694
-1.76557, -0.422836, 1.08613
-0.502354, -0.0281232, -0.482611
-0.483511, 0.409058, 0.331333
-1.16372, -0.488013, 1.60916
1.06788, -0.915982, 0.138559
0.155875, -0.17499, 0.296733
1.39921, -0.974312, -0.343663
0.121126, -0.173639, 1.87513
0.828578, -0.793875, 1.68497
0.334798, -0.973277, -0.421465
1.29698, 0.489966, -0.293991
0.804179, 0.748986, 0.174728
-0.29637, 0.544868, -0.448293
-0.870294, -0.523762, 1.74317
1.06096, -1.8398, 3.13881
0.241076, -1.22584, 0.358524
-0.624938, 0.667735, -1.10168
0.622128, 1.25729, 1.86634
0.533117, -0.31689, 0.0347609
0.367866, -0.602318, -0.122438
0.0930094, -0.464975, 1.54275
1.28633, -1.75981, 1.10088
-0.254853, 0.0598855, 0.224376
-0.21463, 1.18656, -0.217099
0.935471, -0.133683, -0.44583
-0.654818, 1.71219, 0.875377
-0.175675, -0.160966, 0.146157
-1.5629, 0.135394, -0.393054
0.64359, -1.16567, 0.272025
1.73313, -0.121535, -0.856973
-0.329938, 0.587847, -0.486126
0.440682, -1.86623, -1.77955
0.907424, -0.696538, -0.263091
1.03462, 0.303391, -1.40109
0.458694, -0.384273, 0.233323
0.337564, -0.82655, -0.430718
-0.902951, -0.82429, 0.898355
-0.338271, 0.359083, -0.540138
0.172965, -0.198784, 0.805218
0.812996, 0.0856216, 0.555096
-0.0527529, -0.632952, 0.0504069
1.45648, 0.575036, -0.08587
0.382033, 0.220345, 0.342552
-1.36784, -1.46215, -0.894819
-0.29445, 0.583722, -0.961294
1.2216, -0.00232879, 1.13109
-0.699673, -0.300391, 0.222811
1.54834, 0.685361, -0.186811
0.575355, -0.116826, -0.23748
-0.874414, -0.00904402, -0.0606571
-0.0181298, -0.492132, -0.0291307
1.97473, 1.06628, -1.36371
0.357923, -0.783303, -2.18373
-1.09527, 1.08996, 1.93631
1.01246, -0.841441, 0.512533
-0.015943, 0.493055, -0.517241
1.57217, -0.696959, 0.551863
0.361541, 0.423789, 0.217634
1.82114, -1.57807, 1.05263
-1.10302, -1.13079, 0.544488
0.111821, -0.0580146, -0.49442
0.0533096, 0.377841, -0.863137
-0.596948, -0.374673, -0.00601984
-0.724803, -0.791922, 0.11423
0.769751, -0.717741, -1.48938
0.396602, -0.00115463, 0.11815
-0.685624, -1.12319, -0.725479
0.246071, 0.286954, -0.854475
0.103531, 0.429278, 0.112281
-1.51399, 1.26272, -0.599683
0.280647, -0.263113, 1.60822
0.0869268, 0.0184692, 0.402074
0.951311, 0.366472, 0.520423
-0.892487, 1.12943, 0.202755
-1.44877, 0.312435, -0.976826
-0.39135, -0.516904, 0.780516
0.268974, 0.941412, 0.679726
-1.65594, 1.25984, 0.726556
0.338275, 0.738059, -2.03331
0.48704, -1.22439, -0.574485
0.160748, 0.0491219, -1.1211
-0.695717, 0.864576, -0.243979
-0.44547, -2.48139, -0.746733
-0.0805296, 0.33691, 0.333964
0.482452, -0.027801, -0.0315834
-0.889151, -0.390334, 0.575989
-1.15344, 1.94097, -1.28812
-0.75419, 0.114383, 0.953206
0.48947, 0.351101, 0.16513
-0.441338, 1.42509, -0.198894
2.15058, -0.0322532, 0.746477
-0.350386, 0.0579623, -0.426282
0.279255, 0.490316, 0.720413
0.705509, 1.0014, -0.598307
-1.78142, -1.13456, -0.126235
0.0441556, 0.31145, 0.602566
0.214067, 1.29227, -1.53983
0.623457, -1.42221, 0.354757
-1.32672, -2.09511, -0.794892
-0.627513, -0.195584, 0.787509
-0.100315, -0.0400353, 0.0407316
-0.186021, -1.19149, -0.228521
0.572403, 0.482831, 0.565818
-0.309596, 0.579342, 0.340702
0.00491079, -1.33756, 0.893008
0.560835, 0.499766, 1.35706
-0.5939, 1.63131, 1.2387
0.611057, 0.926845, 0.485173
0.679754, -0.0970834, -0.572285
0.0318556, -1.3034, -0.481206
-0.0921103, -0.0994223, 0.369632
0.470585, 1.2166, 0.300577
-1.17139, 1.41434, 0.893603
-0.582452, -0.0685818, -0.625255
-2.75949, 0.688233, 0.280852
-0.468986, -0.527227, -1.30992
-1.31199, 0.284564, 0.127535
2.5082, -0.814211, 1.7136
-0.392206, -0.763143, -0.60149
-0.0484769, 0.0263213, 0.0465409
0.717889, 0.412754, -1.39858
-0.63209, -1.89826, -0.64671
-0.696368, -1.47272, 0.602914
0.172441, -1.12354, 0.440173
0.0414101, -0.308911, -0.222554
-0.603931, 0.18903, -1.81974
-0.564472, 0.842011, -0.390587
-1.87309, -3.62596, -2.69598
0.188407, 2.99583, 0.840306
-0.701172, -2.30561, 2.38906
-0.34427, -0.54081, -0.083532
1.22783, -1.01403, 0.099608
1.79473, -1.21407, 0.218188
-0.180206, 0.0518505, -0.643621
0.993771, -2.2063, -0.115698
0.240685, -0.680213, -0.0122839
0.104693, -0.360047, 0.576547
-2.44766, 1.35064, -0.257894
0.771149, 1.17088, 1.33535
0.298397, -2.92425, -0.627237
-0.360386, -2.93824, -1.40242
0.691083, 1.16929, 0.0472647
0.770521, -1.35899, 0.6574
0.942278, 0.406478, -2.35745
0.248292, -1.56894, -1.80274
1.67765, 0.120583, 0.473882
0.920226, -1.06861, -0.747754
-0.885855, 1.17427, 1.2322
-0.332959, 0.0894638, 0.948885
0.216643, 0.820096, -1.01501
0.389666, -0.327686, 0.823192
-2.53884, 2.42566, -1.89472
-1.29757, 0.292153, -3.03182
-0.700656, 0.0225576, 0.366563
-0.986424, -1.62744, 0.154755
0.0844022, 0.0110146, 0.0608853
0.352089, -0.24759, -0.354332
-1.26803, 0.446958, 0.582379
-0.367188, -0.333472, 0.225676
-0.420384, -1.05833, -1.66228
0.21908, 0.593735, -0.0600388
-0.876963, 0.996141, 0.324024
-0.107859, -0.0956671, 0.242595
0.489235, -0.560494, -2.09852
-1.24918, -0.735913, -2.31008
0.290579, -0.157782, 0.239723
-1.55541, 1.74881, 0.499172
-0.681704, 0.832812, -0.342069
0.542049, 0.67382, -1.40267
-0.747539, 1.23172, 0.307664
0.518738, -0.444793, 0.487326
-0.27764, -0.295452, -0.603621
0.452166, 0.0283833, -0.331673
0.0269807, -1.18775, -0.044295
-0.265134, -1.1056, -0.817433
-1.4463, 0.771197, 0.672271
0.584369, -1.35169, 0.551832
-1.24581, 0.484874, 0.351787
-0.67164, 0.552975, 0.174513
-1.01005, -0.276537, 1.45031
1.39156, 0.283644, 1.6406
-1.00142, -1.2685, -0.445499
0.46729, -0.743755, -0.146251
0.17985, -0.844992, -0.646653
-0.13763, -1.4336, 0.385163
-1.02275, 0.442875, 0.56367
0.584204, -0.617269, 0.647417
-0.98246, -0.633662, -0.575134
-0.0489308, 0.06543, 0.071293
-0.424112, -0.525094, 0.16047
-1.32776, 0.891164, 0.68243
-0.50028, 0.255332, -0.212658
-1.64868, -0.133786, 2.3413
-0.552761, 0.300986, 0.131151
-0.210525, 0.728236, 1.0247
-0.275166, 0.450355, -0.107265
-0.480105, 1.17535, 0.41311
-1.90032, 0.977007, -0.914575
-0.101315, -0.235133, 0.471186
0.588986, 0.0913668, -0.188802
0.263214, -1.61777, -0.472439
-2.04639, 0.435438, 0.6063
-0.207436, 0.0948266, -0.491216
2.04669, -0.209773, -1.34401
-0.121465, 1.06414, -0.116698
-0.816948, -1.3042, 4.0969
-0.61785, 1.06071, 0.125777
0.868601, -0.00843429, -0.473997
-1.86833, -1.01443, 1.0227
0.504789, 0.00761365, -0.459139
1.26628, 0.394952, 0.0784641
-1.80318, -0.363517, -0.977016
-0.473706, 0.281113, 0.152378
-0.47926, 1.37248, 0.00586091
-0.157899, 0.76063, 0.0161197
1.69334, -0.272031, 1.18262
0.554527, 0.975947, 0.306827
0.206519, -0.271355, -0.0972382
1.18051, 0.694441, 0.161299
-1.10986, 0.310606, 0.174168
0.141154, 0.779135, 0.739532
1.70609, 0.0941954, 1.44282
0.0974313, 0.6925, 1.04387
-0.249184, -0.495642, 0.0815066
0.588464, 1.05, -0.530094
0.736807, 0.315835, -0.825574
0.452929, -0.528156, 0.160642
0.168985, 0.377126, -0.248105
3.05126, 3.14251, -0.0276182
-0.45008, -0.191036, -0.343856
-0.793659, 0.968726, -0.978536
2.60173, 2.39935, -0.456609
0.170346, -1.34243, -0.437911
-0.467429, 1.31698, -0.554019
-0.642605, 0.120898, 1.57938
0.425331, -1.69657, 0.416346
-1.22326, -0.248968, 0.981436
-0.33916, 0.172168, -0.521517
0.252014, 0.182295, -0.450978
-1.23029, 0.405287, 0.0421271
0.943742, 0.777973, -0.610799
0.870359, 0.401934, -0.875755
-0.176448, 0.296365, -1.02239
-2.17479, 2.16672, -2.23892
-0.311194, 0.437879, 0.0342005
1.57798, -0.923299, -0.100863
0.324829, 0.971317, 0.145574
-1.09848, 0.00794806, 0.924849
-0.249126, -0.816386, -0.617294
0.863361, 0.632111, -0.638735
-1.1562, 0.216102, -0.581888
-0.486498, 0.838608, -0.0727171
-0.924632, -0.759933, 0.799237
-0.194579, 1.28102, 0.630096
0.926326, -1.56692, -1.79483
-0.103844, -0.312559, 1.23022
-0.22744, 0.350992, 0.316408
-0.43715, 4.47392, -0.892244
0.177442, 0.0199319, 0.189828
0.223078, -0.599986, 0.925603
0.387921, 0.188209, 0.151258
1.32355, 0.456832, 1.8013
0.588607, -1.01429, -0.736083
-1.07011, -0.753378, -0.948373
1.71773, -1.33541, -0.478042
-0.0631594, 0.434274, -0.369709
-1.99024, 0.463544, -2.70982
-1.32739, 0.0483553, -0.0238436
-0.103253, -0.17999, -1.04433
1.04493, -0.0265853, 1.04788
-0.331647, 0.297428, 0.368344
0.208707, -0.803404, -0.910628
-0.533584, -0.834859, 0.269062
-1.11805, -0.309479, 0.260278
1.27835, -1.54784, -0.571117
-0.364503, 0.393611, -0.925197
0.795726, -1.15645, -1.14044
-0.12857, -0.547299, 0.914568
0.768996, -0.339413, 0.451538
0.280512, 1.25858, 0.392526
0.953883, -0.91561, 0.613217
2.92087, -0.464929, -1.45165
-1.79018, 0.131354, -1.03442
-0.195396, -0.356609, -0.0958638
0.242366, 0.0587386, -0.977539
-0.566282, 1.35736, 0.646079
0.715556, 0.667599, 0.135014
-0.185511, 1.2399, -1.4539
-2.32418, 0.563816, 1.21336
-0.25722, 1.12648, 0.180246
0.386312, 1.64022, 0.440451
0.50001, -0.880219, -0.0908521
-0.388275, -0.803405, 0.512285
-0.303348, 0.948999, 0.777055
-0.853018, -0.0763194, -0.2314
-0.784204, 0.790264, 0.76592
1.02784, 0.76165, 0.472591
1.38186, -0.993932, -0.252045
0.321212, 1.00877, -1.93174
0.650048, -0.599189, -0.2879
-0.447478, -0.478513, -0.00209766
-1.02813, -0.354725, -1.84105
-1.27581, -0.263378, -1.6722
0.444184, -0.508328, -0.624496
-0.284512, -0.490831, 0.90829
-0.208259, 0.113315, 0.476405
0.0306223, -0.376747, -0.197644
0.0445403, -0.331912, -1.40663
-0.706058, 0.156326, 0.0843418
1.10288, -1.30221, -3.37399
-0.239099, -0.783844, 0.556904
-0.976866, 0.785772, -1.4792
-0.63059, -0.260987, -0.538106
-2.25556, 2.38696, -0.472512
0.516017, 1.31237, -0.850559
-1.17085, 0.152168, 0.983906
-0.330915, -0.0824384, -0.173144
-0.301855, 0.865714, 0.318547
0.962599, -0.242034, -0.966679
-0.930808, 0.677445, -2.55375
0.342149, 0.196899, 0.144727
0.120865, 0.573636, -0.646487
1.87063, 2.19221, 0.203034
-0.163614, 0.107016, 0.938953
0.202624, 0.793201, -0.0585116
0.0410086, -0.144162, -0.41196
-0.639673, 0.726594, 0.104674
0.0824679, 0.313745, -0.47698
-1.30943, 0.0562202, -0.514844
1.14723, 2.03684, -0.0702392
-1.00336, 0.285053, 0.343987
-0.305473, -0.81541, -1.96313
-0.67258, 0.679031, -0.0962012
-2.211, -1.36356, 0.599324
-0.3751, -0.998761, -0.705916
-0.579712, -1.23878, -0.0693118
-0.0826477, -0.0899893, -0.143876
-1.30128, 1.45149, -0.715202
-0.494007, -0.754443, -0.0406208
0.140636, 0.137329, -0.523955
0.777954, 0.375843, -0.584777
-0.744858, 1.01111, -2.61571
0.270211, 0.157408, -0.0553541
-2.73597, -0.177649, -0.758294
-0.385144, -0.0648012, 0.410506
2.42354, -1.00169, 0.541849
-0.418538, 0.31166, 0.976853
0.324189, -1.11984, -1.7484
1.04809, 1.40013, 1.35832
0.00222739, 0.573215, 2.11573
0.23381, -0.2679, 0.323067
1.45889, -0.910299, 0.92889
-0.461025, -0.541688, 0.752034
-0.461858, -0.167154, 0.181091
0.0845654, -0.049756, -0.30894
0.00871388, -0.246032, 0.0338077
-0.696615, -0.210273, -0.476047
0.705491, 0.488145, 1.64071
-0.30856, 0.603175, -0.698959
0.0731854, -0.0203188, 0.590905
0.795074, -2.24934, 1.71531
-3.47615, 0.377005, 0.523185
-5.4704, -0.348717, 1.53407
1.37857, -0.358866, 0.915049
0.349152, 2.40268, 2.50437
0.128435, -0.0619347, 0.499217
1.23928, 1.97362, -0.733317
-0.830674, -0.398761, -1.35139
-0.354791, 0.243837, -0.352118
0.513267, 1.57652, -0.957472
0.274387, -0.503024, -0.297819
-0.882786, -2.56884, -0.57325
1.04508, -0.0251553, -0.935901
-0.12807, 0.34485, -0.477262
0.81167, -2.29661, -1.48337
0.345618, -0.729621, -0.0643817
1.08031, 1.52141, -0.927652
2.44933, 0.543279, -0.59003
-0.042334, -0.895479, 0.0377607
-0.389012, -1.4332, 0.672917
0.438752, -1.01942, -0.592451
0.175999, 0.0762795, 0.136612
0.376519, 0.641197, 0.994211
1.31338, 1.07189, 2.81598
0.374177, 0.792813, 2.10601
0.448482, -0.841176, -1.34029
-0.445743, 1.23958, -0.185448
-0.382165, -0.313812, 0.396374
1.44534, 0.495305, 1.18109
0.630734, 0.208419, 0.0576633
-0.59095, -0.506267, -0.179559
-1.31194, -0.979141, 2.13681
-0.152894, -0.094059, 0.889496
0.0564808, -0.917452, 0.0636389
-0.482577, 1.02364, -0.0841509
1.31813, -0.683133, -0.0744839
-0.742138, 0.940751, 0.670781
1.35606, -0.512222, 1.66797
-0.863772, 1.76596, 0.432113
1.15946, -1.18935, -0.531293
0.366574, -0.270438, -1.00606
-1.50679, -1.85115, 0.295349
-0.411642, -1.47485, -1.07913
-0.645609, 0.896366, 1.06288
1.14496, 0.0187259, 0.973736
-0.154673, -0.60869, -0.452877
-0.0679677, 0.100176, -0.863129
1.29305, -0.367966, 0.679944
-1.63349, 1.87203, 0.947291
0.139839, -0.0126461, 0.4903
1.45065, 0.0252076, -2.07627
0.517305, 0.0576524, 0.043925
0.314253, -0.937943, 0.324784
0.631435, -0.143001, -0.0842639
1.5712, -0.235344, -0.698615
-0.287548, -0.582272, 0.406813
-0.833753, 0.527968, 0.693023
1.8804, 0.848576, -0.598784
0.687795, -0.28233, -1.11473
0.324889, -0.691554, 0.00172853
0.0528202, 0.107854, 0.302352
-1.86041, -2.9762, -0.105633
-3.28469, 0.209201, -1.25309
0.179401, -0.120497, -0.507035
0.255979, -0.0507915, -1.2619
-0.100241, -0.239237, 0.885256
0.061845, -1.33024, -2.20814
-0.842237, -0.00705068, 0.211197
-0.794782, -0.837436, -0.28208
-0.00668885, 0.13835, -0.82203
-3.0893, -0.205842, 0.692714
-0.251637, -0.542874, 0.217219
0.0223182, 0.472772, 1.12942
-0.251083, -3.25028, -1.47148
0.272702, 1.26372, -0.00673047
-1.728, -1.45759, 0.955969
1.42742, 1.16352, 1.65574
-1.31474, -0.44285, -0.770177
-0.300377, 0.469755, 0.310424
-0.0253499, -0.778957, -0.790727
-0.382614, 0.57727, 0.987855
0.434935, -1.60045, -0.586971
0.819009, -0.730947, -0.775221
-0.582386, -0.633498, 0.0404829
1.17323, 1.49335, -0.121345
-0.758975, -0.106046, -0.8229
1.09421, -0.347908, -0.12873
0.373172, 0.938418, -0.958931
-1.98452, 1.51651, -0.744829
1.36813, 1.56732, -0.584374
-0.508362, 0.141302, 1.70731
1.09264, 0.263765, -0.754577
0.933759, -0.867797, -0.526584
0.099927, -2.8016, 1.36689
-0.885988, 0.48794, 0.287381
1.07051, 1.74099, -0.127273
1.62555, 0.201573, 1.77214
-0.628301, -0.785333, -1.66758
-2.37277, -0.689476, -0.574291
-0.703589, 0.324634, 0.159107
0.17001, -0.0423819, -0.373648
0.368342, 0.933378, 0.0951034
-0.259605, -1.12817, 1.21011
0.115304, 0.251916, 0.0896299
-0.0760204, 1.12273, 0.434746
-0.999082, 0.0783827, -0.803331
-1.21914, 0.738827, -0.155787
-0.619057, 0.723175, 0.12644
1.74019, -0.781593, -0.169302
-0.389403, -0.0216686, 0.807603
0.396168, -1.03658, -0.687291
-0.101777, 0.493873, -1.29058
-0.863127, -1.33774, -1.51169
0.318951, -0.321843, -0.619755
-0.201288, -3.25568, -0.42332
-0.385288, 0.92339, 0.155785
-0.0182737, 0.414558, 1.68536
-0.833555, -0.0824131, -0.685319
0.581893, -0.0600758, 0.0827392
-0.294863, -2.69594, 0.080878
-0.57104, -0.172343, -0.838737
-0.284283, -0.141481, -0.389095
-0.318008, 0.659273, -0.435166
0.577847, 0.22169, -0.311683
0.419205, -0.592339, 0.981124
-0.0894571, 0.0255576, -0.492382
0.5292, 0.586475, -1.54653
-0.37368, 0.740181, -0.268414
0.855762, 0.849983, 0.147055
0.883694, 0.530228, 0.282648
-0.391456, -0.532122, -0.222823
-0.218812, -0.14109, -0.309815
-1.70033, -3.30164, -0.397353
0.602463, 1.41341, 0.751133
0.561947, 0.405624, 0.114895
-2.23573, 0.446133, -1.58047
1.7698, 0.520898, -1.23537
-0.117826, -2.6254, 2.36126
-0.314853, 0.197247, 0.686547
-0.156243, -0.333572, -0.242649
-0.983895, -1.05945, -0.402311
0.230213, 0.30717, -0.0644301
2.04479, -1.63769, 0.15814
0.241045, -0.514608, 1.50431
0.61587, -0.493236, -0.050688
-0.0468786, 0.494653, -0.976599
-1.38983, -1.14344, -0.153961
-1.55345, 0.998371, 0.166757
-0.303877, -0.174554, -0.71866
1.34086, 0.386172, -0.185666
0.608573, -1.58859, 1.24555
-1.03284, -0.491633, 1.29265
0.424118, 1.40739, 0.736477
0.141293, 0.751718, -1.0402
0.170042, -0.212991, -0.528679
0.373345, 0.730932, -1.21347
1.87066, -1.46422, 1.35912
0.548117, 1.25672, -0.175716
1.73531, -0.335911, -0.778538
-0.325604, 0.971468, -1.48336
0.213976, 0.831142, -0.559114
-0.580029, 0.590321, 0.585673
-0.229277, 0.376889, 0.00293376
-0.136712, -1.06461, -0.0216834
-2.12587, 1.39722, 0.128597
0.755201, -0.418225, 0.216047
0.417911, -0.121894, -0.731306
-0.166999, -0.768916, -0.02996
-0.688216, -1.01527, -1.18982
-0.992882, -0.304239, 0.123976
2.20039, 1.37018, 0.110566
0.00634755, 1.43188, 0.505235
0.887412, -0.722551, -0.506831
-2.16251, -0.90302, 2.09325
0.438886, -0.98616, -1.32194
1.51065, 1.66984, 0.234818
0.208286, -0.828256, 0.0742705
1.00116, -0.351118, -0.267182
0.306421, -0.752027, 0.862539
-0.33453, -0.140999, -1.22165
0.980375, 0.89492, 0.286442
0.22106, -2.424, 1.85687
0.937956, -0.830485, 1.40536
0.263762, -1.13298, -1.84631
0.189695, 0.580316, -0.552245
-1.38627, 0.82542, 1.5584
-0.12443, 0.571682, 0.83087
-0.284719, 0.612116, -0.117823
-3.74855, -1.58916, 0.625699
0.245774, -1.57694, -3.21706
-0.0894713, 0.193821, 0.690268
0.783024, -0.505111, -1.13871
-0.483087, 0.303574, 1.70469
2.2555, 2.04684, 0.315912
-0.878709, 0.644103, -0.854903
-0.556166, 0.0374297, 0.0591823
1.28531, -0.539737, 1.21034
1.11507, -0.716567, -0.471263
0.703743, 0.0216609, -0.481229
-1.38644, 0.92828, 0.922393
0.871428, -0.306866, -1.0275
0.51787, 0.0525275, -1.8966
0.0180348, -0.14604, 1.12289
-1.24985, -1.82551, 0.502629
1.85396, -1.45635, 2.71454
-0.214622, -0.262218, 1.19207
-0.363893, -0.0366406, -1.70945
1.18595, 1.81325, 1.56143
1.02746, 1.71346, -1.71005
-0.397273, 1.77629, 1.2484
-0.700127, -0.38909, -0.696353
1.67128, -1.52524, 0.547658
-0.00960178, -0.314328, 0.0579311
-0.824848, 0.405117, 2.40545
0.549857, -0.504413, 0.367683
-0.124102, -0.643462, 0.134733
0.624943, -0.350542, 1.03916
-0.831783, -2.19929, -0.010486
0.485698, -1.25493, -0.935302
-1.17535, -0.260468, -0.951425
0.0365941, -0.906313, -0.757302
0.836283, 1.46543, -0.733957
0.506121, 0.374247, 0.0631971
0.088929, 1.01238, 0.575801
0.619054, -0.0702886, -0.56361
-0.316394, -0.391139, 0.242776
0.0687268, -0.818652, 1.02021
0.336025, -0.756919, 0.178583
-0.0807804, 0.0792835, -0.760813
1.12238, 1.99469, 1.08195
0.196637, 0.360095, -0.11618
0.644074, -0.105521, -3.05942
-0.234504, 1.42699, 0.58161
-0.591866, 0.560658, 0.151014
2.27941, -0.46519, -0.416396
2.37654, -0.346572, 1.41417
-0.132543, 1.21355, 0.228759
0.187996, 0.486846, 0.188552
-0.287145, -0.960478, 2.08108
-0.935783, -0.415861, 1.36495
0.354161, -1.11125, -0.478143
1.3111, 0.704131, 0.399152
0.982804, 0.766217, -0.545861
-0.437959, -1.0183, -0.283594
-0.247783, 0.452492, 0.654191
-0.934595, 0.170044, 0.371429
0.206289, 0.817592, 0.0714103
-2.80263, -0.124902, 0.64964
1.22669, -0.627743, -1.85459
-0.586245, -0.211443, -0.827114
-0.516619, -1.22552, -0.135857
1.11866, 1.01595, 0.655073
-1.20656, 0.0608119, -1.27534
0.379401, 0.424914, 0.568899
0.316432, 0.181865, -0.766784
1.75963, 0.932891, -0.370312
-0.0478746, 0.0295812, 0.479665
-1.57506, -1.85365, -0.374359
-0.458045, 0.460084, 0.140669
-1.75987, -0.187705, -1.84442
1.09193, -0.600866, -0.745598
0.184637, -0.345457, -0.19106
0.943038, -0.909245, -0.402373
-0.34449, -0.410564, -0.0439904
-0.334951, -0.308679, 0.6261
0.557042, -0.533966, 1.0039
0.0183285, 0.0220972, 0.0161827
-0.615851, 1.00612, 0.476678
-0.124073, -0.36099, -0.570216
0.103038, -0.32978, -0.148831
0.0344659, -0.59551, 2.40208
-0.288667, -1.2544, 0.326492
0.273755, -0.652561, -1.14053
0.052268, 1.40253, -2.58643
-0.487412, 0.0481318, -0.780251
0.236967, -0.172435, 1.04474
1.11756, -0.266076, 0.171346
0.791958, 0.100105, 1.03892
-0.384496, 0.979663, 2.11828
0.254481, -0.0905913, -0.471076
-0.948283, -0.837892, 1.11349
0.0704846, 0.384938, 1.62496
-0.280798, -0.238393, 0.513137
-0.349214, -1.50389, 0.0144002
0.248707, 0.264609, -0.86095
-2.75942, 1.41396, -0.961767
0.315079, -1.93661, -1.17655
-0.0341035, -0.123134, -1.28426
1.42007, -0.143359, 0.319801
-1.31594, -0.351844, -0.145595
-0.335317, 1.21644, 0.37971
-0.326625, -0.250879, 0.895074
1.61716, 0.138547, 1.15482
1.46308, -1.17875, -0.293263
0.997475, -0.753027, -0.178085
-0.914662, -1.10904, -0.0598817
-0.400039, -1.95262, 0.00654654
0.246047, -0.0378761, -0.155303
-0.282995, -0.654807, 0.064601
1.22135, -0.772603, -1.03547
0.197691, 0.555576, 0.447245
0.168818, 1.07797, 2.69257
-0.109886, 2.10431, -1.40976
0.858056, -0.0207938, 0.575679
1.22171, 1.51431, 0.201504
-0.247127, 0.106345, -0.807402
-0.861501, -0.993371, -1.21138
-1.51557, 0.332552, 0.682628
-0.350011, -0.928269, -0.672007
-1.27981, -0.0705761, 0.0884559
0.173584, -0.203068, -1.16019
0.216534, -0.227077, -0.430671
0.423953, -0.798572, 1.18074
-0.119435, -0.00145541, -0.0699359
0.27774, -1.59668, -2.11064
-0.200275, -0.541945, 0.794711
-0.209377, 1.19218, -0.614547
0.641546, -0.93064, -1.01058
-0.254251, 0.180807, 1.29804
-0.021129, -0.669541, -1.15368
0.132725, -0.763851, -0.099742
0.167497, 0.72619, -0.7755
0.186217, 0.469441, 1.65403
-0.223822, -0.52091, 0.00993484
-1.25507, 0.603358, -1.29395
-2.00472, -2.82412, -0.397137
0.619895, 0.110632, 0.824737
0.760562, 0.968103, -0.245652
0.313781, 0.900143, 0.166037
-0.563249, 0.770231, -0.790792
-1.91668, 0.224852, -0.427951
-0.713335, 0.982751, -1.63446
-2.26005, 0.387365, 0.0337428
-0.125004, 0.534088, -0.452051
-0.899877, 1.44972, 1.72452
-0.117899, -0.545929, 0.684556
0.468237, -0.851685, -0.100338
1.47548, 0.40429, -1.60485
0.364323, 1.00881, -0.642831
-0.612052, 0.538394, 0.139558
1.05576, -0.436338, 0.0904633
1.46626, -1.03041, 0.544433
-0.482574, 0.13384, 0.497188
0.283328, -1.13117, 0.919047
0.85597, -0.668579, 0.454911
-1.21164, 1.59009, -1.43077
-0.1862, -0.191787, -0.203935
-0.0302423, -0.306445, 1.14928
-0.148245, 0.291059, -1.2002
0.260455, -0.734465, -0.156302
-1.90511, 0.353446, 0.408983
0.018273, 0.373108, 0.47669
0.155987, -0.708216, -1.14775
-0.850035, -0.949597, -1.01564
0.0665547, 0.415187, 0.0265491
-0.682845, -0.775271, -0.655049
0.875165, -0.386337, 1.16807
-0.374894, 0.0954563, 2.47435
-1.20066, 0.880961, -1.00085
-0.280516, -0.159757, -0.489204
1.26655, 0.73822, 0.502563
-0.359711, 0.586291, 1.4713
0.689059, -0.840326, -1.38026
-0.488104, 0.830738, 1.3708
-1.12533, -1.59577, -0.628744
1.1218, -0.483212, -0.156471
0.837651, -0.174182, 0.386777
-0.125429, 0.531705, -0.0305727
-1.5863, 0.788689, -0.193218
-0.256568, 1.46686, -0.497142
0.110032, 0.142318, 0.63776
-0.101533, 0.338342, -0.455323
-0.338382, 0.82711, 0.0926804
0.13688, 1.12772, -0.554249
0.543498, -0.069, 0.234418
2.32249, 0.0686041, 3.21493
-0.0169332, -0.958751, -0.496543
0.173473, -1.36394, 0.0395372
-0.772743, -0.800686, 0.509605
1.23889, -0.647141, 0.642251
-1.4657, 1.12698, 0.288838
2.60975, -0.300523, -0.298127
-0.718016, 0.114774, 0.504667
0.625514, -2.12528, -0.366634
2.14726, -2.47322, -0.0501836
-0.290203, 0.958546, -0.649343
1.21601, -1.75131, -0.816008
-1.16747, -0.72204, 0.237893
-0.453966, -0.58593, 0.391193
0.186589, 0.0666184, 0.678002
-1.63129, -0.472321, -0.163056
-0.785059, -2.12861, 2.42458
0.0334891, -0.0777796, -1.70184
-0.603343, -0.188117, 1.24509
0.530669, 0.0247298, -0.279017
0.650545, -0.484863, -0.612997
0.655732, 0.633279, -0.649944
-0.396934, -1.71098, -0.157895
1.05852, -0.671004, 0.09922
0.415684, -0.401576, 0.0448883
-0.0355928, 0.0475681, 0.599952
0.990434, -0.389027, 0.337952
-0.418108, -0.310373, -0.50753
0.835106, -0.699661, -0.715729
-0.125626, -0.0418091, -0.419144
0.262788, 1.15915, -0.94929
-0.78578, -0.656526, 1.21969
0.747863, -1.7574, 0.650118
0.406382, 0.572274, 0.319895
-0.885715, -0.0795518, 0.615641
0.920322, -0.500701, -0.640686
0.769463, -0.113134, 0.463809
-0.710902, 0.857304, -0.0418862
0.728501, -0.27966, 1.09266
-0.522393, -1.43175, 1.55971
0.19705, 0.482219, -0.230086
-0.00193038, 1.23086, -0.663643
-2.07833, -0.343254, 0.392438
-0.749868, 0.607906, -0.125604
0.568888, 0.433285, 2.35167
-0.279345, 3.79988, 1.08928
1.41255, 0.754802, -0.130386
-0.760134, 0.307268, -0.531746
-0.268703, 0.719518, -0.23901
-0.251914, -0.0310651, -0.433675
-0.159694, 0.743837, 0.268589
-0.340889, -1.05724, -4.44466
-0.645664, -0.339669, -0.0198791
-0.557697, -0.224196, -0.341778
0.456528, -1.58822, 0.289409
0.0305153, -0.469903, -0.0770459
-0.386004, -0.0274172, -0.507886
-0.998535, 0.81322, 1.41482
0.30226, -0.961565, -0.428351
0.355111, 0.336833, -1.0901
0.643683, 0.941245, 0.862331
1.3556, -0.515645, -0.707012
-0.0405382, -0.630477, 1.73769
-1.02677, -0.0591241, -0.161939
1.75881, 1.61555, -0.299587
0.303976, -0.415722, -1.94524
0.679361, -0.568364, -0.752392
-0.581789, -0.397267, -1.16155
-0.384331, 0.457975, -0.701715
0.00337926, 0.189713, 0.377891
1.0894, 1.62311, -4.10521
0.103179, 0.867135, -0.0819058
-0.301641, 0.278747, -0.295751
-1.3965, 2.41114, 0.926901
2.38463, 1.30596, -0.0815542
-0.0388336, 0.16681, 0.182402
-0.269364, -0.309365, -0.108959
-0.176465, 0.77089, -0.189233
0.30815, 0.32831, -0.236334
-1.96644, 0.0521211, 0.834282
-2.38269, 0.735885, -0.804428
-1.7487, 0.710687, -1.57952
0.506217, 0.330827, -0.96682
-0.150889, -1.42823, -1.68138
0.0585358, -0.74175, 1.6367
0.10886, 0.224528, -0.0443675
-0.421874, -0.111443, 0.125771
-1.41732, -0.982308, -1.142
-0.176992, -0.40067, 0.0769079
1.51252, -1.05713, -0.894863
0.6172, -0.268972, -0.548741
2.46376, -1.11467, -0.192531
-0.276255, -1.52499, -0.527998
0.591692, 0.493357, 2.43506
3.27828, 0.776143, -1.62365
1.0678, 0.0430549, -0.856946
0.275786, 0.9948, 0.771385
1.96621, -3.15309, -1.07304
2.937, -2.67754, -2.44827
-1.01046, 0.543848, 0.572104
0.809678, 0.838323, 0.498468
0.108669, -0.126816, -0.65608
-0.65711, 0.227704, -0.677534
0.403933, 0.263533, 0.299122
2.11545, 0.436478, -0.129115
-0.127559, 0.65259, -0.382844
-0.0193643, 0.872823, -0.799192
-0.373801, 0.34632, -0.213989
1.50817, 1.10885, -1.1021
-0.863206, 0.123556, -0.180059
-2.26435, 3.00664, -2.16652
-0.305273, 0.0911433, 0.743974
-1.95908, -0.656822, 0.6447
1.58468, 0.811154, -1.10723
0.628049, -0.264136, -0.455017
0.937409, 1.04061, -0.120648
0.00338281, 2.19259, -0.806631
0.463845, -0.995088, -0.404873
2.40216, 0.669072, 0.326685
-0.826605, -0.663317, -2.74561
0.0928956, 0.54777, 1.21882
0.64501, -0.751845, -1.07651
-0.107324, -0.478254, 0.368316
1.20051, -1.08926, -0.502319
2.23775, 1.25651, 1.03361
-0.674716, -0.2704, -0.0557557
0.550124, -0.386323, -1.43289
1.02707, -4.04319, -1.19027
0.0888069, 0.0513076, -0.498124
-1.30321, -0.479792, 0.537365
-0.456179, -1.3401, -0.684182
1.866, 1.9423, -0.188452
-0.113917, -0.453589, 0.495619
0.709651, -1.30653, 0.0376011
-0.131094, -2.04902, 0.397964
-0.472003, -1.08723, -0.125524
0.664251, -0.649792, -0.304745
-3.2241, -2.01504, 1.82339
1.28435, -0.937304, 0.69869
0.68329, 0.185571, -1.05243
1.75408, -1.76226, -0.717771
1.60704, 0.917467, 1.04307
-0.995872, -0.159705, 0.465037
1.13653, 0.102143, -0.168995
2.37211, 0.237732, -1.43034
1.19589, 0.47213, -0.197479
-1.20297, -1.39916, 0.263566
-0.471557, 0.27969, 0.351632
2.45517, 0.753507, 0.237294
-2.21622, -0.954446, 0.898824
0.552134, -0.108862, -0.409945
-0.277469, -0.400876, 1.01981
0.37926, -0.640859, -1.01595
0.462901, -1.74708, 0.95394
-0.955071, 0.272226, 1.04401
0.167347, 0.786889, -0.0777029
-1.16717, -0.973532, 1.13222
0.448892, -0.695848, -0.0345484
-0.0485267, -1.00352, -0.137819
0.28913, 0.0268867, -0.195446
0.421166, -0.106601, 0.594196
0.188864, 0.188779, 0.0391338
-1.30232, 0.0717312, 1.28153
-0.502159, 1.68966, -0.152869
-0.0722384, 0.160899, -0.587414
0.837147, 1.49948, -0.356967
-0.211456, 0.307295, 1.0328
-0.587593, 0.00503988, 0.112285
-1.02428, 0.904416, -1.19727
-0.0262137, -0.453761, 0.238205
0.505493, -0.466023, 0.517857
-0.649209, -0.623301, 0.525324
-0.565191, 0.252255, -0.00122147
-1.23576, -0.277345, -0.634279
0.383018, -0.949132, 0.15091
2.10342, 0.269303, -0.801155
0.566151, -0.0259752, -0.111087
1.78765, -0.904333, 1.88873
-0.337897, -0.643834, -0.31061
0.388309, -1.09939, 0.614812
0.53298, -0.436715, -0.673769
-1.88429, 1.0278, -0.814586
0.490724, -0.0015427, -0.912345
-0.564051, -0.495731, -0.626659
-0.760532, -1.16533, -0.892674
-1.76082, 2.15684, 1.45591
0.730599, -0.149882, 0.126438
-1.31381, -0.153966, -1.09313
-0.108652, -0.0771591, -0.660369
-0.586499, 1.65036, 2.27557
-0.364423, 0.268593, 0.687441
1.02002, 0.368883, 0.658038
0.417652, -1.03801, -1.61515
0.310642, 0.0052481, 0.127116
1.76111, 0.456263, -0.342648
-0.23158, -0.0218696, 0.210616
-0.0505014, -0.139953, 0.642062
-0.315391, -0.739012, 0.357681
0.934905, 0.0725299, 0.182206
0.584389, -0.487405, -0.467848
0.546894, 0.2638, 0.128249
0.73549, 0.747426, -1.89231
0.279092, -1.2984, -2.43238
-0.393592, -0.229996, -1.0842
0.509773, 0.334879, 0.406199
-0.239452, -0.175341, -0.0714696
-0.0541058, 0.0063005, -1.77038
-0.0831313, -2.14081, 1.69611
0.767321, 0.533772, -0.578153
-2.16451, -1.22628, 2.18307
-0.882734, 0.303038, 0.0813658
0.120051, 0.719415, 0.27098
-1.30904, -1.78204, 1.41961
0.715424, -0.540343, 0.704499
-1.17659, -1.60717, -0.0549263
1.67303, 0.656274, 0.661852
1.24958, 1.29219, 1.93641
0.639321, -1.29603, 0.345044
-1.07532, 1.40202, 0.111416
-1.0084, -1.10845, -0.462444
0.701626, -0.305593, -0.3236
1.24528, 0.206627, -0.599241
-0.931487, -0.742943, -0.687633
0.411577, 0.79298, -1.93241
0.139194, 0.980333, -1.14243
0.670578, 0.390911, -1.45537
-0.918676, -0.194802, 1.22416
0.643249, -0.940512, -0.161727
0.200107, -0.0639212, 0.0769467
0.0648788, -0.0410397, -0.557393
0.177609, 0.111069, -0.0701392
-0.409287, -0.90103, 0.0920499
0.435325, -0.0940426, -0.0370727
0.904837, -1.51047, -0.634488
0.80173, -0.0796852, -0.19758
-0.239996, -0.861215, -0.975442
2.13381, -0.289935, 0.26055
1.72868, 0.681785, 0.264558
-1.02089, 1.15229, -1.18932
0.518814, 0.390635, -1.24321
-1.61047, 0.589463, -0.11455
0.217875, 1.07244, 0.489356
-0.196199, -0.00815975, 0.263142
0.0573124, 0.297355, 0.737218
-0.0319964, 0.50494, 1.34489
-1.18203, -0.668647, 0.0243337
-0.151764, 0.815334, 1.09103
0.486396, -1.96416, 3.13947
-0.584529, 0.455101, -0.698586
0.497775, -0.655143, -0.136765
-1.27083, -1.48708, 0.216382
0.999184, -0.709462, -0.889868
0.883259, -0.738703, -1.62754
0.318663, 0.233583, -0.032453
0.763513, -0.841111, 0.011112
-0.148282, -1.09109, 0.283015
-0.731459, 0.715101, 0.845647
0.707817, -1.02781, 1.00447
-2.26074, 0.78247, 0.0283151
0.454577, -1.11119, 0.0775543
0.196004, -0.68854, 1.04924
-0.398908, 1.16488, 0.295288
0.0599592, -0.778018, -0.295731
-1.10889, 0.958484, 2.07514
-0.58383, -1.95727, 0.101444
-1.02261, 0.29386, 0.236515
-0.932386, 1.69829, 0.0500839
-0.586281, -0.555903, -0.261588
0.194598, 0.67659, -0.425376
0.566151, 0.023095, -0.386294
-1.57927, 0.186984, 0.558229
-0.450687, 0.0596281, -0.432093
-0.041775, 0.407475, -0.465788
-0.777176, 1.62913, 1.61406
-0.121942, -0.588177, -0.28032
1.91254, -0.256881, -1.03369
0.713824, -1.04121, 0.712809
-0.153973, 0.00971144, 0.162767
-0.105731, 0.0976122, -0.651902
-0.0801986, -1.44173, 1.17706
-0.387062, 0.930919, -1.33306
-0.603984, 0.364325, 0.176474
0.643669, -0.476108, -1.40985
-0.208251, 0.0391937, -0.291403
-0.811311, -0.123768, -2.35381
0.851498, -0.204006, -0.85052
0.440216, 1.97908, -0.0632153
-0.367908, 0.426438, 0.333674
0.0772308, 0.974205, 0.666298
0.703648, -0.153522, 0.0687457
0.525688, -1.32368, 0.336838
-1.01838, 1.87707, 0.778754
2.02624, -0.540487, 0.264049
2.80815, -0.12616, -0.361131
-0.53775, 0.308903, 0.577932
0.878859, -2.42701, 0.707749
0.418913, -0.695954, 0.329608
-0.399839, -2.22462, -0.528021
-0.81294, -0.0371658, 0.163848
-1.05721, -2.61913, -0.958869
0.206324, -1.07598, 1.23228
-0.108998, -0.338649, -0.0177989
-1.69783, 1.67803, -0.144957
0.28873, -0.946395, -0.043575
0.122945, -1.06742, 0.0658067
-0.0669813, 0.491988, -0.106982
0.351948, -0.244705, 0.424008
-1.48207, -0.592189, 0.0481508
-1.52881, -1.51441, 0.00278568
0.200521, 0.14223, -0.0688688
0.194151, 1.30652, -0.841308
0.679724, 0.235907, 0.708277
-1.20453, -1.10994, 0.781416
0.28644, 0.987732, 0.136044
0.0655978, 0.0058374, 0.109581
1.31399, 0.600832, -0.286798
-0.841877, -0.593881, 1.36687
0.0255834, -1.31703, -0.30411
0.230975, 0.84484, -0.436056
0.767463, 0.515945, -1.22181
0.0240173, -0.968642, 0.199294
-0.533081, 0.585631, -1.76164
1.04754, 0.825613, -1.06148
0.166496, -0.114831, -1.48952
2.28309, -0.0734534, 1.37157
-1.21225, 1.07178, -0.131631
-0.941856, -1.29828, 0.0100758
0.282511, -0.498254, 0.195023
-1.44995, -0.586178, 0.772335
0.615993, -0.189533, -1.0049
0.0846123, 1.0272, 1.14356
0.176787, -0.458383, -0.632256
0.98104, -0.772165, 0.537767
-0.952504, 0.498999, 1.5069
-0.434431, 1.64638, -1.59384
0.545921, 1.0326, 0.179186
-0.0935228, 1.01938, -0.284854
0.0668074, -0.0982851, -1.83903
-0.6539, -0.0620155, -1.85016
0.517499, -0.823348, 0.698947
-0.201938, 1.0134, 1.49855
2.91202, 1.83824, -2.2091
1.02141, -0.0754568, 1.53852
0.434979, -0.890939, 0.438448
-0.75235, -0.688713, -0.721933
-1.18663, -0.755238, -0.125956
0.330456, -0.457264, 0.259582
-0.415543, -0.483644, -0.368089
-0.623702, -0.0654296, 0.113064
1.06936, -1.6886, 1.74227
-1.0822, -0.599211, 0.928274
0.725563, 0.201475, -1.58651
0.755371, 0.761013, 0.491521
0.00214082, 0.784538, -0.146166
0.354515, -1.45299, 3.932
3.54859, -0.431641, 0.172525
-0.00676667, -0.53142, 0.345599
-0.060006, 0.552857, -0.344719
-3.23371, 0.094224, -1.24377
0.449752, -1.30404, 1.51086
-0.584001, -1.51116, 0.556448
-0.453846, 1.40164, 0.983139
0.625945, 1.2699, -1.86465
-0.113411, 1.015, 1.79582
0.933919, -3.11511, 0.758651
-0.465819, -0.328826, 0.655157
1.1448, -0.649566, 0.311913
-0.535084, 0.19275, -0.0642507
0.396325, 1.38738, -0.667233
0.174769, -0.0688078, 0.405473
-0.0312528, 1.87046, 1.12859
0.767115, -0.0405364, 0.231626
-0.306777, -0.576308, -0.473572
-0.986344, 0.829663, 0.436259
0.057692, -0.102183, 0.0704185
0.575862, -0.553403, 0.513929
-0.973458, -1.2197, 0.94068
-0.174474, -0.835253, -0.329976
-1.40319, 0.651311, -0.0968336
-0.206297, 0.359949, -0.455903
-1.16642, 1.27548, 0.254409
-0.198254, -1.59603, -1.5978
-1.29517, -0.773188, -1.62522
-0.709156, 0.758495, 0.0245178
0.551492, 0.667451, -0.0772701
-0.533411, 0.631403, 0.255476
0.440752, -0.795945, 0.396797
-1.88155, -1.06716, 0.822037
-1.3033, -0.513033, 0.87996
-0.342815, 0.0167255, 0.429837
0.386688, -0.307196, -0.843597
0.0404778, 0.0695205, -0.46733
0.177458, -1.09065, 0.72273
-1.97306, -0.45842, -0.601104
0.128794, -0.389099, -0.631116
0.449835, -0.214114, 0.3591
-1.6165, -0.612278, -0.646317
0.55243, -1.50223, -0.507825
-0.577994, -0.185245, 1.1248
-0.472888, -0.641698, -0.133441
0.922795, -0.298217, -0.00572915
-1.92744, -1.4977, -0.481073
-0.269253, 0.991871, 0.534988
0.806387, 0.136586, -1.10578
-0.360175, -0.411709, -0.022866
-1.25703, 0.0387869, -1.32739
-0.0591381, 0.513062, -0.0903157
-0.587141, 1.44747, 2.27324
1.20568, -0.844093, 0.409927
-0.0293268, -1.11242, -0.538209
0.368141, -0.0693986, -1.34246
-0.729847, -1.30704, -1.05519
-0.506727, 0.925855, -1.29362
-0.27402, -0.64729, 0.741169
-0.410866, 0.133642, -0.491149
0.298734, -0.756448, -0.171145
-1.58011, 0.427294, 0.71548
-1.87578, -1.48799, -0.624368
0.178147, 0.0775393, -0.873635
-0.210648, 0.112001, 0.387137
-1.58275, -1.50797, -1.84236
-0.647332, 0.45443, -0.152996
0.373899, -0.401765, 0.347584
-0.864237, 0.566946, -1.56612
-0.287551, -0.0331256, 0.00908247
0.306798, 0.751751, 0.723516
-0.856758, -0.603138, -0.334307
-1.31783, 0.394203, 0.351212
1.0436, 0.0117526, -0.495626
-2.78759, -0.801925, 0.212862
-0.297054, 1.28648, -0.257551
0.0627272, -0.392294, 0.435162
0.618543, 0.0707141, 0.106308
-0.341103, 0.0823999, -1.5156
0.0981865, 0.301203, 2.03162
0.591085, 0.565633, -0.365853
-0.0761856, -1.03586, 0.928819
0.456579, 0.32227, -0.846781
0.37544, -0.168107, -0.716973
-0.0503842, -0.648306, -0.423473
0.0399413, -0.526946, -1.08957
0.221722, -0.0791476, -0.49075
1.252, -0.513842, 2.68964
-0.184644, -0.0733539, -0.470809
2.19977, -0.676905, -0.43757
-0.691026, -0.143128, -0.282831
