0.115514, 1.1119, 5.74879
5.63604, -1.53264, 2.97869
-0.484202, 1.71457, 7.93893
2.4752, -3.96486, 8.07655
2.43521, -1.29791, -2.53835
-0.43665, -1.5431, -2.81736
-2.90261, -5.41159, -6.7586
-3.33226, -5.50284, 4.49758
0.957692, -2.21364, 4.46787
5.69962, -0.684438, -5.99919
-2.49922, 2.1036, 1.05986
-2.29419, -1.7697, -4.25458
4.56807, 3.36668, 3.93172
-4.41313, -1.65749, -4.50003
-1.10054, -1.30193, -4.24297
-1.23347, -3.40793, -2.66666
2.98302, 0.542329, -2.39418
-0.195975, -1.03248, -0.989377
1.27761, -0.882169, -1.737
-1.94617, 2.22519, -4.76829
2.46987, 1.73308, 3.94206
-2.98107, 1.61529, -1.80622
0.678216, -2.79136, -5.57754
0.856311, -0.192304, 2.5366
-3.56088, -0.0938316, 6.87249
4.41799, -0.375456, 7.75581
-8.627, 1.25254, -4.81902
0.796613, 2.24453, -3.97193
-1.16783, -1.22032, -1.56833
3.09954, 5.87166, 3.73329
-1.94351, -0.514716, 0.626006
-2.4058, -1.05701, 4.65218
-4.95155, -2.54033, 5.67989
4.31283, -4.11181, 2.15079
-0.800367, -1.98369, 6.38602
-3.17762, 3.08536, -3.62089
4.92926, -2.26905, -4.5947
1.16042, 0.885012, -2.23182
-0.756084, 0.796687, 1.69479
-0.856691, -2.28621, 2.5393
-2.71017, 2.62646, 6.34942
0.997451, -5.13919, 4.56271
0.720052, -1.71083, 1.59075
-0.484626, 1.50602, -2.25175
3.91417, -1.9426, 4.08135
-2.3397, -3.63108, 5.07039
-2.84833, 2.45316, -7.03985
-0.734497, 9.90453, 5.06224
0.312978, 0.446835, -2.71911
2.97078, 1.78201, -2.53582
-1.23374, 3.51385, -8.56165
1.24026, 0.903603, -0.800246
2.23118, -3.05607, 5.48565
-0.65346, -2.08136, 4.1563
0.500141, -1.70395, -1.99596
0.595288, -1.1846, 2.17825
-2.12069, -0.225892, -2.4378
-7.01518, 2.41129, -8.68846
-0.28906, -0.711425, -2.43838
0.411039, -1.07968, -1.36845
0.745219, -1.08963, 3.70928
-1.29798, 1.77584, -2.38208
2.22214, 2.58233, -3.43157
1.42968, -1.87487, -4.10899
2.28112, 1.182, -1.88389
1.83234, -5.26274, 1.68397
-4.04013, 1.83334, 2.43078
0.774097, -2.09247, 4.48627
4.24038, 0.470219, -6.69266
-0.16973, 0.775274, 0.895628
-5.54965, 2.03303, 4.26323
-0.850627, 2.39683, -4.5852
2.84982, -3.02951, 2.47891
-1.06297, 1.45562, -4.39431
3.79083, -0.181497, 2.82665
-0.143492, -0.763071, -4.22959
-1.28159, -2.0283, -3.53797
-0.0595632, 2.74485, -9.58385
1.05907, -0.10675, -2.05686
-2.40088, -3.854, 4.58188
1.79632, -0.193576, 1.10679
2.57243, 1.46377, -5.58324
-2.02138, -0.330101, 3.39276
-2.82518, 0.518936, -4.98492
0.499263, -1.88277, -1.50745
-1.59125, -0.424288, -2.23003
-1.19365, -0.0861348, -9.47936
3.6069, -1.94635, -3.11802
4.37858, -4.85711, -3.68384
-2.86701, -1.61921, -10.696
1.20357, 0.0925743, -1.61668
-2.90506, 0.0803437, -1.9986
2.7044, -0.863188, 3.21195
-0.253197, 1.40801, 5.22981
-1.46781, -0.0517196, 2.98622
-0.353702, -3.33704, -4.02518
2.10183, -1.23971, 5.97445
2.02029, -0.308236, 2.4482
1.1304, -2.25448, -5.53494
-4.19415, -3.01957, -1.29638
2.59267, -2.02208, 3.15328
-0.170221, -0.422832, -4.4833
1.8124, 0.696415, 4.73524
-7.01031, -4.23269, -2.30731
-2.42393, -0.281017, -3.32587
3.4755, 1.03993, -8.88963
2.59792, -0.435353, -1.89081
2.96597, 5.57706, 2.38228
-0.10379, 0.947661, -6.99137
1.55151, 0.156978, 1.52597
2.37664, -0.117079, 0.480005
0.128561, 1.44201, 3.7979
-0.333394, -0.306887, 3.35281
1.19931, 1.68845, 3.81632
-1.61111, -2.61463, -8.93615
-1.66502, 0.19747, 2.09877
-1.20157, 1.83166, 4.06754
-6.53091, 5.42422, -4.58225
-3.92033, 0.291747, -4.30948
-1.47773, 0.505422, 3.38614
-0.634783, -5.29497, -5.42427
-1.07695, 1.63099, -1.11846
-1.53155, -3.57658, 6.13729
-0.608768, -1.37753, 1.84531
-0.0897677, 0.0401111, -0.940773
0.85784, 1.1023, -5.7168
3.49384, -1.42377, 4.76021
-2.86527, -1.18574, -2.67783
-1.96991, 0.949542, -4.23582
1.05073, -5.17691, -2.91746
-4.76053, -1.64561, -6.93406
0.649711, -3.27567, -3.41
-3.67182, -1.97473, 4.44456
2.77678, 4.79755, 1.71719
1.16651, -5.88388, 8.15526
0.614884, 1.42583, 2.06003
4.99915, 1.5337, -4.55509
-3.97132, 0.980049, -9.25136
-1.22837, -0.0274679, -1.70754
2.11337, 5.95479, 4.24279
3.93432, 1.90139, 3.43014
1.75837, -4.52713, -3.00046
-2.10889, 0.656129, -2.39399
1.37026, 1.48007, -3.14575
5.75818, 6.3591, -4.86601
2.48435, -3.71194, 2.83714
0.236239, -0.362834, -2.3496
-1.82549, 0.569307, -1.88342
2.77579, 1.80501, 2.44491
5.26769, 0.546154, 1.01329
3.23185, -0.207748, -4.71943
-1.11921, -1.37137, -3.48827
-1.9831, 8.69741, 6.57169
0.134844, 0.868701, -2.43585
-0.42134, -1.33686, 1.59366
-1.05095, -1.79949, 4.12084
-4.23433, -5.47894, 2.8885
1.80164, 2.58257, -7.65904
-0.849738, -2.9374, -3.96155
-2.61383, -3.53742, 4.73891
-0.303628, 0.139205, -2.69615
-0.677574, -0.60377, 5.61675
0.993435, -0.626121, -2.15985
2.31921, -5.49879, -2.66575
-1.92466, 1.81859, 2.33717
1.50783, 0.175467, 5.63382
1.46893, -1.1479, -1.36292
3.78814, 1.30303, 5.43091
0.717601, 1.81488, -0.738924
1.36533, -0.140031, -5.09941
0.315121, -1.0346, -1.57986
2.83676, 1.89757, 5.65835
1.00128, -3.80701, 2.34732
0.882276, 0.593777, -1.73093
-2.25872, -1.74728, 3.73037
-0.0366079, -0.616943, 2.45803
-0.789448, 1.48135, -5.92442
-1.15671, -1.86694, 4.17367
-2.65239, -1.05842, 2.67263
-4.00361, -3.76194, 3.02388
4.8, -0.79678, 3.49601
-2.49156, -4.30486, 2.74853
4.46145, -4.02162, 4.00595
0.0979143, 3.76772, -2.02642
-2.29329, -0.311764, 4.6802
-1.18528, -1.27949, -3.61658
-1.29201, 0.176805, 2.17644
1.25945, -4.89078, 2.57972
0.514946, -0.348751, 4.78736
-1.28049, 1.26991, 2.99
0.201606, 0.831994, 3.23337
0.354409, -1.09771, 1.50177
0.244975, 1.50001, 4.94658
-1.03287, 2.84472, -4.67755
-3.10866, -4.70824, -4.04902
1.8356, 0.524159, -3.00457
-1.56403, 0.96237, 5.57383
0.494412, 0.571338, 1.24329
0.661918, -2.21596, 4.54414
1.83095, 5.16716, 4.00634
0.984809, 0.0978473, -6.51607
-2.25375, -0.298802, -2.46116
1.23371, 3.04931, 7.00696
-3.83665, -0.0480519, 4.57621
1.48065, -1.08705, -2.28649
1.15342, 0.377526, -4.35613
-2.50761, 0.880512, -2.69627
-4.7892, -2.18438, 4.96215
-3.27375, -1.18597, -1.94139
-0.150507, 0.660808, 1.70761
0.387773, 2.37292, 1.4965
-4.24687, -0.965608, -4.4068
-0.729902, 0.275058, -1.50714
-0.268234, 3.18053, -1.5177
-2.75112, 1.24804, 8.90331
-0.368662, 0.944985, -5.2818
0.780852, -1.44655, -1.79748
-5.27711, -7.01316, 5.28688
2.04844, 4.93237, 3.78625
2.61466, 1.36066, 1.99098
0.0933593, -3.25611, 5.546
-0.0719178, 3.6613, 7.88836
-0.965128, -2.84811, -3.17136
-1.97477, -0.172732, 2.87522
-2.69781, -3.27784, 5.11093
-2.8963, 5.28733, -5.57676
-0.0756249, -3.87506, -1.29437
-3.41805, -0.931804, -4.31604
0.504229, -2.00934, -2.85168
2.92641, 0.478832, 3.84362
-0.333856, 1.09174, 6.96808
1.62861, 1.91101, -1.90469
-0.952146, -0.735757, 6.25133
4.80156, 0.55448, 7.23315
3.4644, 1.81974, 8.91215
-0.457374, 3.20665, 6.93892
0.912926, -2.86337, 3.37223
-2.45881, -0.464777, -4.25524
5.52815, 0.0597002, 5.0551
-2.86823, -2.69617, -1.95679
-0.601807, -5.11051, 1.29084
-0.432794, 1.86986, 8.33793
-0.27746, 2.06358, -0.404223
1.80121, 3.30315, 1.21712
-0.9993, 0.363315, 2.23545
1.96036, -0.837466, 0.7747
2.7904, -1.52721, 7.0077
-2.52494, 3.46101, -1.62126
0.755123, -2.78872, -3.75345
-0.394673, -0.408938, -2.48859
-0.764076, 2.55119, -4.22716
-0.122734, 1.88315, -5.0767
-0.594118, -0.492961, -6.28297
0.731584, -1.9005, -2.32715
-0.712739, 2.41928, 2.35338
-1.97367, -2.47465, 1.15797
-4.11967, 0.263378, -2.01925
1.81788, -0.858744, -2.40516
-0.344771, 0.0570216, 1.81773
0.974844, -4.21099, -8.97232
-1.66875, -1.20091, -6.60448
-0.342707, 2.98461, -4.29798
1.36354, 7.8843, -2.22893
2.5576, 3.02303, 5.35077
-7.53724, -3.87914, 3.24816
0.800708, 0.899505, 1.01241
3.77174, 3.51914, 2.53039
0.249498, -0.333493, 2.46203
-0.580515, 0.503762, -1.38735
-3.42166, -1.47264, 2.7495
-0.175416, 1.5895, 1.96147
-1.53728, -0.0864788, -2.74703
1.3513, 0.837428, 4.72117
0.0291379, -2.8576, -3.58561
-0.93955, 1.77661, 4.45213
1.11665, -1.06828, -2.27331
-0.667768, -2.25453, 4.96222
0.0711147, -0.324896, -1.69331
4.15686, 0.218911, -6.37262
-1.88404, -0.843367, -1.15158
1.61481, -0.311238, -2.23912
3.30212, 0.344123, 2.91811
-0.921023, -5.31058, -3.92124
-2.26784, 1.44009, -4.11156
-0.0270352, 0.787723, -2.70555
2.9787, -2.66992, -3.75577
2.97105, 0.981687, -4.65823
-0.648283, 0.382938, 3.14944
-2.25953, -0.613403, 3.98777
-8.25567, -4.93466, -7.71973
1.25332, -2.05664, 2.78127
-1.64918, 0.787831, -4.19883
0.841957, -0.036292, -3.10651
-5.1667, 0.72784, 3.92822
-1.85715, 2.40207, -3.22419
3.60311, 2.80192, -2.5782
0.0771973, 4.65804, -3.67244
-0.492, 2.21199, 0.445989
0.684618, -2.15347, -8.0483
1.53623, 0.227959, -0.746679
0.536462, -4.35589, 2.06384
-1.067, -0.255907, 2.10162
1.35131, -0.54109, 6.3629
0.194342, 0.424212, 4.72733
-1.20015, -1.17298, 3.16794
-1.69858, 3.39219, 2.63903
1.3823, -2.39235, 5.05659
2.09119, -1.70776, 1.10599
2.07674, 1.40389, -1.36431
4.51726, 0.555309, -7.46049
-0.762725, -0.865191, -2.92231
-0.772673, 1.40576, 5.92386
-3.12203, 3.05765, 2.40331
0.0256318, -0.730649, 4.96084
3.24506, 1.4326, -1.78159
-0.0815233, -4.88628, 3.50272
-2.56526, -2.79919, 0.964238
0.577891, -1.90581, 2.03445
-0.412617, 0.306486, -1.15989
1.24624, -2.98883, -1.88653
-0.658466, 1.32394, 1.97068
-0.656598, 1.01497, -2.56778
-1.17155, -0.94934, 2.68758
2.13026, 2.51949, 7.83815
0.712032, -0.992553, 2.10072
4.83913, 4.07013, -5.77467
-2.97262, 1.62652, 4.23005
-1.5947, -0.154448, -2.36383
1.26499, 3.29577, 4.38352
-2.46303, -0.8291, 2.66467
-0.587901, -0.158037, 2.65611
-0.945668, 0.868129, 0.633014
-0.944418, -0.348595, 3.33466
1.36555, 2.01219, 2.0981
-3.42156, -1.70523, -7.85804
1.48291, 0.898537, 4.05905
1.74995, 0.602062, -6.01784
0.403606, 0.822189, 4.49515
1.05709, 3.06903, 5.01444
-0.60339, 1.69957, 1.664
-1.77597, 0.502306, 2.31691
4.66695, 3.05907, -4.92263
-0.721948, -1.71693, -4.57125
1.23864, 0.985803, 4.70205
-2.59102, -0.580261, 4.82891
1.91762, -2.38161, 1.76803
-2.94456, 1.83045, -6.56983
0.235474, -1.46346, 2.10767
-0.0950218, -6.10519, 3.80096
-0.534332, 0.151043, -1.64868
3.88856, -0.731868, 5.94694
2.87548, 3.81705, 5.1731
-0.410134, 1.47314, -3.16494
5.06104, -0.943029, -5.75722
-0.105806, -4.02673, -2.75439
0.728043, -2.10181, -2.40785
1.71634, 1.13068, -4.99985
-0.123919, -0.865037, 1.30847
-0.817625, 0.842846, 3.71151
-1.51467, 0.486146, 1.47891
0.0389751, 1.51649, -1.95283
-0.725411, 1.47754, 3.32033
2.43663, -0.663731, -4.55899
-0.180862, 8.02655, -5.06551
-5.24712, -2.05072, 3.38923
0.0402917, -1.6627, -3.98121
-0.443096, -0.301748, 2.56999
-2.86411, -0.871587, 2.76752
0.0189228, 0.556693, -3.19365
2.44002, -6.82873, 5.60159
2.04137, -1.21345, -3.29121
-1.26213, -1.40001, -1.9594
-0.774339, -0.887974, 3.65388
-1.59915, 2.80824, -7.26953
1.95974, -0.996542, 1.80041
2.03549, 0.637702, -0.727938
-1.55019, 0.32055, 2.11623
3.60247, 2.30338, 4.22649
0.724878, -0.845561, -3.25419
-0.968542, 4.55276, -4.17161
-3.13837, 3.14707, 3.39311
-1.65735, 2.69147, -6.09875
0.578979, -2.86818, 2.90677
-3.17247, 3.24855, -2.50589
3.53136, -2.4712, -3.55701
-0.354619, 1.43718, 1.52312
1.56226, 2.51955, -2.03632
0.242432, 0.212196, -0.626806
-1.92437, -0.607753, -1.93309
-4.37575, -2.34287, -4.86518
1.28738, -0.148023, -3.00449
-1.05664, 2.20845, -4.48484
1.29209, -0.552293, -4.10173
1.01308, -2.16251, -2.61141
-0.97522, -2.28518, 5.29424
-0.44216, 3.36683, 3.88587
-2.72166, 1.93166, -3.83268
-0.22792, -0.740894, 2.97926
-1.16405, 4.70721, -4.82729
-4.6563, 7.0276, 5.39441
-1.46721, 1.64828, -3.90413
-1.13911, 4.97923, -4.73989
-1.33155, -1.62963, 4.10535
-0.496252, -2.02716, -2.859
-6.23213, -1.12623, -2.11101
-1.43752, -0.433723, 4.10345
4.21248, 12.0669, -2.63011
-1.64592, -0.433405, 1.10685
-4.34366, -3.49733, -4.84183
0.739954, 0.345301, -3.99737
2.24275, 1.32765, -4.73568
-0.322791, -2.32061, -2.96921
2.10054, -4.13579, 1.06449
-4.81668, -0.780309, -2.71508
-0.721404, 2.04081, -4.84354
0.674332, -1.97988, 1.33137
-2.68446, 2.97142, 4.58471
-1.53346, -0.377948, 3.247
-4.12686, 1.74603, 3.64476
-1.43109, 0.327076, -3.42613
0.0200968, -1.50317, 5.1275
1.62161, 1.44542, -4.45676
1.57602, -0.185949, 3.58935
-0.59077, -0.00211682, -3.43463
-0.239989, -0.04846, -1.53343
-0.579705, 0.694716, 1.62443
0.94467, 0.914622, 4.18411
-0.933732, 1.63105, -2.60201
3.22581, -0.887685, -2.38398
0.938393, 0.45685, 6.93219
0.482581, 1.63229, 2.3374
-1.808, -1.55527, -4.42935
-2.63781, 1.15991, -5.25479
5.85303, -0.837249, -5.90365
-0.190003, -1.5612, 3.2919
-0.766771, -1.4137, -2.59694
0.456125, -0.000460171, 2.76055
-3.13262, 5.09728, -4.73312
-0.185045, -0.238727, -5.64101
-0.859904, 0.625619, 1.89405
-0.306544, 4.339, -5.10579
-1.23976, -0.61405, 1.65438
-3.45894, 3.207, 2.98146
1.78093, -0.543479, 1.80718
-1.42345, 0.95382, 2.24924
1.50546, -0.750315, -3.57482
4.72136, -0.840132, -5.60274
-1.33008, -3.6872, -4.41704
2.00141, 0.610842, -4.70245
-0.437006, 1.77307, -2.06629
1.10543, -1.05339, -4.13743
2.94824, -1.03977, 4.06905
-1.05233, -1.42651, 1.71736
5.71374, 5.75573, -2.2957
-0.438808, 4.26167, -1.31966
-1.2571, 1.37045, -2.56115
0.49741, -1.78635, -1.72715
1.96044, -2.45454, -5.23496
-1.13181, -4.72191, -7.31453
-2.41777, 0.709602, 9.30662
0.868273, 5.27488, -3.8738
1.96367, -1.71403, 1.88643
1.3441, 1.07988, 3.29711
1.28092, -0.117234, 5.20183
-1.3691, 1.20442, -3.38074
-0.12567, 0.0802917, -1.95556
-1.06238, -3.25799, -2.45594
-0.482982, 0.441504, -1.82011
-0.533461, -0.591559, 1.41377
-1.48252, -0.853346, 3.18238
-0.414347, 0.329424, 3.8926
0.26982, 1.21612, 3.37509
-2.27197, -0.224458, 3.07175
0.290859, -4.84898, -2.46428
3.64848, 7.44862, 4.10652
-2.12521, -2.49332, -2.43643
-1.22291, -0.114303, -3.0106
-0.402839, -0.698545, -3.15937
3.63836, 1.54192, 2.71631
1.75269, -0.104826, 4.5527
0.571288, 3.21461, -2.08184
-2.07457, -0.134174, 0.892057
0.292483, -1.4998, -6.2149
2.38251, -0.407725, 1.84464
-0.574286, -4.16604, 5.88709
0.455598, -0.72091, 2.60907
0.427173, -1.37275, 0.968359
-2.64752, 1.03729, -3.25226
1.75378, -1.01317, 1.39441
2.47455, -2.5631, 2.80298
0.312557, 0.334531, -3.70305
-0.990371, 2.83563, 3.13435
-1.70497, -0.236658, 1.67007
-2.60057, -2.80082, 3.85767
-8.355, -4.7605, 6.27291
0.931382, 1.3816, 2.79082
0.886251, -0.332068, -4.30732
-0.821444, 1.18373, -3.55637
3.25559, -0.283225, 0.917645
-2.94691, 3.1042, 5.80873
-0.0252834, 2.01165, -3.26912
1.6931, 0.0848504, 4.63664
4.97831, 3.60586, 8.47534
-0.267518, -0.391672, 3.63402
-2.21348, 3.57809, -2.63805
1.0997, -2.44149, -0.882643
0.163947, -0.0692178, -2.06588
0.257954, 1.1183, 5.40661
-0.0104305, 2.41847, 4.12473
-1.24155, 0.467885, 3.70867
-4.96861, 0.0258055, -6.56932
-1.87139, 1.3904, -3.82834
-2.91916, -1.33412, -0.644945
-5.2389, 1.29743, -8.00709
-3.5494, 2.84668, -2.87154
-1.22119, -2.68922, -5.34378
-0.703777, 0.613039, -5.31986
-0.458872, -0.443997, -1.69211
-0.474788, -1.24793, 2.72863
3.21315, -3.02196, -5.10613
-0.0617314, -3.1003, -2.55145
-1.33882, -0.201467, -5.63321
-0.587571, 0.145255, 3.59058
0.415032, 5.65038, -7.93667
4.52334, 3.49135, -3.76291
-0.123722, 0.608444, 2.57587
-3.03879, -0.0259599, -5.49117
2.33643, -1.06243, -2.13189
1.66914, 1.45669, 1.853
2.27153, 1.21624, -4.71759
-4.48994, -4.05675, 4.14061
-0.877833, -0.90794, -1.28835
-2.5637, 1.51636, 2.96316
0.979996, 0.0969913, 1.38556
-1.25762, -0.531973, 9.36913
2.19328, 2.36002, -1.90013
-1.66536, -0.0121147, 0.834929
3.3382, 0.834906, -2.32325
-0.761933, -1.70659, -4.10133
1.51868, -2.86488, -5.68452
3.96655, 0.179256, -4.37433
-0.0838512, 2.29264, 2.39463
-0.380785, -2.11642, -4.95756
-0.978575, -3.13461, -9.98812
5.03177, -0.959399, 4.42364
1.10852, -2.5222, 12.19
-4.95322, 2.1514, 4.00579
1.48497, -1.99946, -2.91216
0.0533022, -6.13403, -4.27931
-2.15829, 3.34456, 3.27351
-2.3905, 2.05578, -8.14614
-0.675917, 1.91994, -4.52265
-6.64595, -0.860475, -5.10854
-0.739674, -1.59944, 3.62014
3.25237, 2.44679, 4.10815
-1.4347, 2.22099, -2.84734
-0.503866, -1.52335, -3.90518
2.35714, -0.418069, 1.67787
1.1325, 1.24205, 8.20337
0.737376, 1.71454, -8.77954
-1.00296, 1.67725, -4.65786
-2.56033, -4.9792, 2.48761
1.87915, -1.3381, 5.84196
-1.49021, 0.130989, 5.94207
1.46967, -0.182865, -2.16149
0.26751, -1.56306, 5.3114
2.04641, -4.10296, 5.86004
-0.119378, -2.65845, -4.11253
3.39523, -0.995358, -4.01583
-1.5928, -1.02791, -2.66967
0.810803, -0.522082, 0.990718
-0.090504, -1.54275, -9.94647
-1.26056, 0.570539, 5.6058
0.894076, 1.60284, 3.70015
-4.87291, -2.69348, 4.70664
0.540203, 0.391194, 6.29893
2.66704, -1.72287, -5.21683
3.77525, 2.83406, -3.74416
-0.588797, 1.09133, 6.58615
0.579379, 0.558884, -1.84926
-3.26034, -1.72942, -6.22974
-3.57833, 2.29104, 4.11776
3.4615, -2.37055, 2.66689
-1.62641, 7.37396, 9.12908
1.70222, -1.38224, -2.40579
0.174141, -3.09933, 5.62379
0.743276, -0.802088, 2.91272
-1.36588, 2.32218, -3.96866
1.54675, -2.17874, -5.82293
1.65615, -1.76325, 7.17974
-3.59945, -1.82696, 4.82579
-0.542798, 0.399744, -6.15974
2.86172, 0.930999, 2.05345
-1.36789, 0.624459, 2.01346
1.82711, -1.74411, -5.25816
-1.03909, 0.130588, -1.00968
3.74367, -2.07652, -5.67824
-1.29256, -4.18211, 4.13381
1.01013, -1.9571, 2.00818
3.1058, 1.06663, 4.96207
-3.21581, -0.221963, -0.761756
1.52473, 0.448219, -3.48692
4.60129, 2.9836, 6.93097
0.144828, 1.75052, -2.75658
-1.15799, -1.74284, -1.49296
-3.57553, 2.46697, -6.56773
2.06992, 4.5524, -1.01944
3.5564, 3.6528, 6.36016
0.00313724, -1.05897, -3.54442
0.42919, -2.59354, 2.92571
0.466743, 1.23213, 4.34511
-1.45036, -1.80462, -2.34716
2.05975, 2.27749, 3.3212
-1.19885, -1.76608, -3.61514
-3.2559, -4.14953, 6.9957
-5.33591, -3.59578, -9.03219
3.12006, -3.12213, -2.62206
4.37727, -3.06905, 2.09676
0.247638, 1.78005, -2.2417
1.00692, -0.870592, -3.02538
0.445763, 1.1537, 1.92963
0.0198716, -2.11314, 2.00911
-2.21413, -0.242924, -2.94613
-5.55373, -1.01635, 1.39947
3.30852, -3.25481, -1.82745
-0.488968, 0.459611, -3.08269
4.22708, -4.16071, -2.52135
0.235587, 0.723982, -0.893188
-3.89975, 4.44786, -6.70045
1.05144, 0.10333, 1.76154
-0.832081, 1.66009, -8.73156
-0.628146, -1.15825, -2.11346
-3.86663, 1.0098, -4.15964
2.75964, -4.33767, 2.83174
2.0301, 1.37404, 6.82135
0.190558, -0.235019, -2.62604
2.47631, -1.01928, 7.67577
-1.84689, 0.352672, -1.77322
1.06281, 3.1642, 2.55313
-1.93554, 2.34237, 3.57408
2.014, 2.30551, -3.76012
-1.4899, 2.18361, -1.92654
0.208805, 0.611537, 2.70409
4.40177, 0.785513, -3.62243
2.68175, -6.43649, 5.26013
-0.136868, 1.59427, -0.924915
-0.578842, 0.117415, 2.03163
0.113233, 2.77241, 2.35259
-1.47179, 0.0814309, 4.45177
-0.0146894, 5.5404, -7.15729
-1.88102, -0.828342, -3.30828
0.99606, 0.332232, 2.12359
-2.6651, 0.479879, -2.78511
0.0609811, 0.833945, -3.60075
0.663487, -0.755301, 3.84315
1.67569, -0.956803, 1.27642
-1.30351, -0.374283, 6.70439
-0.0920247, 1.89375, -3.12879
0.43534, -2.80014, -6.12901
0.923484, -5.83177, -4.46225
3.3369, 3.16884, 6.20172
-2.10872, 2.63292, 1.96365
1.78203, 1.55508, -4.68186
-2.38299, 2.65875, -4.55667
0.869602, -7.93676, -4.32586
-1.01784, -0.101056, -2.28117
-0.775724, -2.00274, 5.57793
-1.6622, -0.766024, 3.93935
-2.13564, 2.39516, 2.37681
-0.0954541, 3.24052, -3.92145
-3.57462, 3.20933, -5.78161
0.23074, 0.888674, 2.16367
0.602284, 0.0455477, 1.80111
6.96624, 3.0863, 3.76589
4.3299, -2.36411, -4.136
3.13019, -1.00222, -2.55347
-0.366641, 0.312937, 2.50911
-0.483916, -1.14778, -10.0556
0.882195, -5.01694, -10.0775
1.81704, -3.19568, 4.28113
-2.05857, -4.12249, -1.93231
0.181084, -4.81451, -3.60485
-1.22544, 1.13929, -2.04121
-2.05952, -6.17411, -3.19687
3.16596, -1.76212, 2.217
-1.69198, 1.73746, 5.33389
0.483651, 1.14179, 0.352703
1.13815, 4.93769, -1.113
0.385295, -1.18645, -2.26613
-3.29017, -3.70334, -4.52513
-2.02598, -4.42126, -2.37234
-3.63784, 4.54768, 1.99973
-1.73224, -1.22519, -3.89199
0.684914, -0.622625, -7.73163
4.6986, 3.52164, -4.61121
0.343384, -0.00918969, 1.23888
0.624793, 0.125606, 3.81255
-0.783035, 1.00249, 3.63482
0.383169, -0.661486, 1.72474
-2.5354, -1.64211, -1.76564
2.64302, -5.44263, -13.5069
0.949016, 0.465561, -2.3147
0.438014, -0.202534, 6.42224
-0.0646882, 0.515347, -3.92229
1.94129, -3.343, 3.24027
-1.94576, 1.25485, -2.16866
2.65454, 1.46675, -6.60925
-5.38197, 0.961698, 5.62891
0.416707, 0.508772, -3.2239
-3.00021, -0.517098, 4.31166
4.10489, 1.27612, 4.82467
0.554443, 3.94257, 3.10161
-2.09947, 0.923506, -3.57167
0.450608, -1.05117, 1.97486
-0.874807, 1.48631, 3.82027
-2.78842, -0.180964, 3.71453
1.23802, -2.11991, -4.05366
-4.39218, 2.07691, 2.8645
-2.36518, -3.44961, 7.13274
0.962568, -2.34086, 1.25007
-1.53632, 1.60557, -4.5083
-3.81564, -2.29265, -2.86394
-5.12083, 3.45989, -4.91741
3.03188, 0.433799, -3.1926
-1.62827, -2.6999, 3.03835
-1.1847, -0.503135, 1.39919
-1.40322, 3.76957, 5.36759
0.796101, 4.82549, 2.32817
-5.66348, -0.159283, 4.65825
0.315401, -0.446747, 0.7625
-1.17516, -2.07752, 5.44343
1.45353, -1.19812, 4.64512
1.15188, 1.73057, 4.61188
2.91734, -0.793475, 3.36912
-0.828259, 4.78233, -3.68443
1.75091, -2.30514, 1.46514
-5.30551, 3.35133, -11.8858
1.36679, -1.32102, -1.91674
1.25202, 1.24571, -3.33491
-1.88228, 1.72265, 5.64775
-0.311127, -1.08905, -2.06862
0.277653, -0.0597988, 3.62397
-1.57219, -1.76755, -3.65861
-0.304833, 3.12313, 1.11052
-3.30278, -0.369168, 2.0144
0.786387, 0.675495, -4.36466
2.00839, -2.15983, 1.3693
1.99765, 0.203133, 1.1168
2.12163, -1.14355, 2.12054
1.74526, -0.923078, 7.64474
3.1703, 2.25421, -6.22873
-0.88171, 0.520678, 4.11398
5.87099, -2.42133, 4.53518
4.30739, -0.144405, 5.07262
-0.196639, 0.749979, 6.40957
1.33334, -1.96908, 3.58749
1.72016, -0.358079, 1.98264
0.314094, -2.57559, -2.10051
4.12143, -1.30503, 1.36454
2.7278, 2.20425, -2.33462
1.96607, 0.178949, 4.52275
-2.57672, 5.00682, 7.35093
0.821976, -3.75932, 2.83266
0.776236, 0.537635, 0.975346
4.6003, -0.163894, -2.29667
-1.3167, -0.871381, -4.53991
1.72778, 3.1857, 5.50553
2.23216, 3.44516, -6.7645
-1.04037, 0.402497, 3.33503
-3.52603, -3.68732, 3.65347
-0.807993, 2.54286, 2.35861
1.00309, -0.673754, 0.613879
0.104825, -0.0551991, -1.58728
-0.452848, -3.1575, 3.65219
4.56791, 6.58863, 7.75957
-1.47093, -2.6813, -1.40213
-3.38362, 0.346572, -1.60164
2.73673, 0.424064, -5.62177
0.915796, -3.73317, -2.33452
1.37517, 1.21096, -1.92844
0.405871, 0.290218, -4.11989
-2.71488, 2.01136, 3.12441
-0.0714838, 1.97002, 4.94042
8.49357, 0.45441, 8.58096
0.973337, 3.13712, 5.71765
-0.10233, 0.592278, 5.03751
1.68737, -0.128029, 5.54756
-0.180188, 2.07531, 3.81583
-3.19914, 1.14444, -4.09488
1.61797, -5.99175, 2.29043
0.407497, 0.328662, -5.73332
4.26791, -1.20492, -3.95071
-0.233095, 0.953761, -2.98981
1.06203, 1.11313, 2.24688
0.410468, -0.46965, 1.4161
0.858065, 3.79237, 3.07906
0.155452, 5.10146, -3.54085
2.77536, -2.90827, 3.23848
2.57778, -0.287232, 1.65715
-0.205117, 1.43062, -2.17609
2.4669, 2.88594, -5.9801
3.20955, 2.08238, 0.246515
0.529225, -0.158255, 7.54008
0.63874, -2.91001, 4.27721
3.71648, 5.10022, 4.6711
2.10972, -2.55025, -5.72509
0.43324, -0.073121, -1.77963
-3.41391, 1.82141, -5.04853
-0.815002, -1.77046, 4.21832
-0.450216, -2.85494, 2.30083
-3.77048, -0.580531, -2.90864
-1.49442, 1.96199, -1.02465
-2.84415, -4.06963, -3.4512
2.74238, 3.68273, -4.59115
5.47036, 6.82703, -4.94675
1.02929, 0.186767, 1.97431
0.111942, -4.11362, 3.21529
3.14925, 0.699395, -1.28975
-0.38908, -2.49274, -2.91674
1.11399, -0.671462, 3.5716
0.527355, -0.328248, -4.97546
4.44615, -6.25273, 5.97412
-3.53483, -1.57696, -4.43577
1.93218, -4.5268, 7.54849
-2.56618, 2.62037, -5.43567
1.72093, 2.44308, -2.77915
-0.377826, -2.74928, -7.5709
-0.256361, 3.63441, -3.3114
0.64187, -6.44319, -3.856
-1.23449, 2.12207, -3.563
1.16036, 3.25296, -7.12369
-3.1888, -0.102497, -3.19968
-4.39507, 1.75998, 4.31557
1.91307, -1.41859, -4.99024
2.20897, -1.39272, 1.47785
0.743875, 1.41515, -3.09967
-1.38534, -0.0215872, 2.73336
0.0829406, 0.405693, -2.44492
-1.11203, -1.42932, -5.39192
2.07281, 0.193212, -2.62959
0.866772, 1.82201, 2.27503
-0.803235, 2.90601, -3.27449
-4.08139, -0.441257, -3.08274
0.809799, 1.06316, -1.32947
0.766876, 0.602888, -4.03585
-1.2735, -1.15973, 5.16827
-0.356854, -0.202892, 5.41845
-2.53152, -4.11791, 6.48143
0.738065, -1.74113e-05, -2.57826
1.07332, 0.891602, 0.731277
-3.18832, 0.607536, 1.96537
-1.51191, 2.52431, -9.24773
-0.484694, 0.248186, -2.69409
-0.355887, 1.20916, 2.65186
-2.01579, 0.456872, 2.04491
-0.587108, -1.835, -3.36045
1.92749, 1.11832, 1.90956
-3.15168, 1.85722, 3.42711
-0.299185, 1.27312, 2.76281
-4.26183, 1.20114, 2.00708
-4.47395, 1.53371, -3.71706
-1.73614, 0.865942, 2.1217
-1.68105, -0.280489, 4.49097
-0.546264, 0.337024, 2.9663
-4.07579, -1.86793, 4.03109
-2.22294, 3.69001, 2.33467
0.978905, -0.432967, -6.12847
2.05126, 1.19327, 1.74294
-0.0204694, -0.397978, 2.81462
-1.07264, -0.0403562, -3.18899
0.891963, 0.235481, -5.47014
2.2506, -0.949231, 1.37807
2.10319, -1.6638, -4.41555
0.188306, 2.86801, -1.92838
-1.25842, -2.26772, -2.80237
2.25658, 1.32425, 3.21849
2.04021, 1.46029, -4.66977
-0.800184, 1.08856, 0.796541
1.83776, 1.97239, -2.46504
1.35412, 2.38078, -0.959907
-1.80653, 2.91273, -4.73107
0.740571, -1.09493, 4.75807
-0.45913, 2.32587, -1.68562
0.0928575, -2.51858, 2.88521
0.0850289, -0.464368, -3.49018
7.90783, -3.05621, 2.08268
1.8638, -0.792512, -5.1833
2.09946, 0.552583, 6.58671
-2.54454, 0.413878, 1.69518
-1.47089, -0.276783, -1.32466
-2.26514, -0.826317, -5.24032
-0.420553, 0.411564, -3.93541
5.14767, -3.47272, -2.54888
2.93691, 1.12336, 2.44457
1.78841, 0.572251, 2.56984
0.468002, 3.63807, 3.44493
-1.57592, -2.39722, 5.71285
1.84916, 0.557101, -1.53062
-6.13031, -2.3896, 7.54475
1.68099, 2.10786, 1.46684
-2.55298, -3.08213, -3.03751
1.72428, 0.0803765, 2.86777
-1.30528, -2.91359, -3.47835
-0.24536, 0.141294, -5.21351
1.07152, -0.904125, 3.23653
0.775471, -1.32423, 0.724715
2.54675, -1.045, -6.39831
-4.14366, -0.981133, -2.04578
0.221021, -4.90263, -2.83717
-0.326257, 0.488294, 2.35296
-2.55639, -0.410936, 5.54187
-0.414456, -3.77602, -2.03466
1.22501, -1.44087, -1.12481
1.01658, -0.113724, 6.42695
3.18449, -0.674748, -4.06697
0.989389, -0.677564, 2.34874
0.0337159, 1.27423, 7.24551
-2.37936, -4.58277, 3.6747
-3.8138, -1.12656, 1.22785
-0.571859, -1.10737, -3.98472
-2.51509, -2.13699, -3.83209
0.935611, 3.06214, -5.07786
-0.0181155, 0.114064, 4.91513
2.28783, 1.02739, -0.835946
-1.80761, 0.306418, -3.11421
0.370374, 0.510242, 1.68134
1.93047, 2.18483, 6.0942
-1.82683, -0.951293, 2.8663
2.07292, -3.17541, 3.77883
-2.09622, 0.985055, 1.92179
1.39745, 0.581523, 2.98373
1.96552, -0.467152, -3.86777
-1.92581, -1.56761, -4.61809
4.00667, -0.296875, -2.90735
2.24978, 0.630922, 4.45665
0.729636, 2.77802, 3.79252
-1.70897, 3.745, 3.10951
0.114051, 2.2257, 3.59483
4.59386, -0.444311, 7.27473
-0.799702, 2.82636, 4.36107
-1.37015, -1.52722, -5.83929
-1.78492, 0.917052, -2.13446
-6.61638, 1.24174, 13.7462
0.39542, -0.43365, 4.70196
-2.41025, 2.33479, -1.62648
-1.09922, 0.747202, -5.88088
0.648948, -4.09919, 5.57244
3.20189, 1.16902, -5.644
-0.131242, 1.40032, 2.82207
-0.391186, 0.807316, -0.108532
0.158637, -2.48055, 3.76516
-3.72484, -1.64176, -8.03197
-2.07941, -2.64494, -3.4155
-0.539987, 2.46285, 2.34489
4.17328, 0.106309, -3.16046
-1.59586, -0.827096, 1.8283
-1.36084, 1.9672, -5.11553
0.329381, 2.04227, -6.17247
2.45106, -1.61188, 1.86934
2.3746, 0.899205, 4.84249
0.840369, 0.83818, -4.51405
-2.88216, 1.48256, -2.73779
0.00965355, -4.42596, 3.13369
-2.83906, 3.02931, -6.16162
3.48622, -0.573967, 6.62893
3.92131, -0.672452, 5.48411
-1.07959, -2.40869, -0.581321
-3.15033, 3.6597, 9.30025
2.36612, 2.78825, 8.64949
1.66199, 2.81942, -5.07664
3.84082, -5.62426, -10.4549
-1.20697, -1.36563, 7.56286
0.177881, 0.291438, 3.35596
3.77298, -5.1435, -5.50506
2.21487, 1.78198, 0.457618
0.223707, -2.47271, -2.68202
-2.80185, -0.803883, 5.48255
-0.362426, 1.33611, 7.98435
-5.26264, 6.85537, 16.4655
3.04378, 1.93677, -1.44843
-2.92789, -0.274633, -4.22285
-2.92622, -2.58855, 3.91996
0.460684, 4.1703, -2.45181
2.96671, -0.212266, 3.93675
0.998725, 1.21828, 2.53543
0.975379, 0.908156, -4.66266
2.80348, 3.56327, 5.37763
4.46619, -2.17813, -8.32812
0.288165, -2.04558, 2.1245
2.50481, -4.1716, -6.01173
0.262141, 2.8954, 1.56875
3.41879, -1.65989, -1.50412
-1.04647, -2.58894, 4.95129
-0.387473, -0.809166, 1.71777
0.994332, 4.24584, -1.75532
-4.08315, -0.672868, 4.15806
-2.62722, 0.0477304, 3.36722
2.91412, 0.834677, 4.03614
-0.183564, 0.0775575, 4.06956
2.21321, 0.684341, -3.0342
-1.07737, -2.82487, -3.17601
2.51493, -1.83589, -5.53709
0.0568717, -2.291, -3.62748
2.12584, -1.89663, 5.92766
-6.50877, -0.48678, -2.02299
2.51192, -1.41622, 5.00004
-0.743239, 1.38886, 2.98747
-1.62285, 3.99283, -1.13597
2.49749, -2.5824, -2.97101
-1.7132, -0.812145, -2.53128
4.65134, 4.51578, 5.03901
-1.68542, -2.58587, 2.52409
1.76946, 0.959869, 5.49597
-0.135056, -3.34215, 4.0616
-6.19196, -0.418468, 4.7922
-0.437059, -2.84586, 4.84246
0.461879, -0.779124, 0.479175
-0.647769, -0.71648, 1.51597
0.0962799, -2.09573, 3.40924
-2.37269, -2.53449, 1.48603
-0.821026, 0.826544, -3.00064
2.38068, -1.48969, -4.3814
1.45881, 0.866706, 2.78889
-4.89047, -5.11246, -5.56924
-2.62375, -1.19859, 2.90019
0.960568, 1.1899, 0.832183
0.469927, -4.06799, 1.41721
2.34461, 1.40408, 1.77294
0.542973, -0.709756, -2.58866
5.8496, 1.08285, -9.88065
-0.833739, 1.4092, -4.1021
4.78697, -5.64242, 4.32073
0.905889, -0.837086, -5.21054
3.48216, -2.00154, -3.73872
2.12932, 0.0412263, 1.18081
-2.0523, -0.594412, -3.09641
-0.591648, -4.29748, -2.55364
-4.61989, 1.3233, -3.31345
-0.723379, 2.28091, -6.21213
-0.271349, -0.0341936, -2.00922
-3.18826, 3.30656, 3.2641
2.18111, 2.8232, 2.66846
-1.15449, -2.57803, 4.6539
-0.687333, 2.54337, -4.29458
5.09432, -3.70338, 1.81533
-0.241902, -0.173138, 1.60974
-0.0352937, -2.18307, 4.9274
-1.6265, 0.268395, 2.54157
-2.88358, -1.2653, 2.18406
0.859932, -1.71388, -1.15392
-1.66329, -0.50169, -1.78047
8.23921, 4.48645, 5.32086
2.73058, -2.05316, 7.81849
2.11269, 0.935889, 1.72003
3.28657, 1.70323, 3.60607
4.62751, 2.99, 1.60006
-0.00922167, -0.540735, 4.65007
1.34241, 0.155945, -4.931
-2.44253, -3.4334, -4.38663
1.2159, 2.05656, 5.20661
-3.76754, -0.171303, -3.86893
-1.28547, -2.384, 4.87597
1.5227, -1.99311, 5.77645
-1.61114, -0.163333, 3.75931
2.16129, -3.19715, -4.59186
-1.01466, -0.302464, -2.70207
-0.91545, -3.87341, 7.66946
-1.06721, 0.813518, 3.70616
-5.33412, 2.8996, -3.09497
-0.369951, -0.26964, -1.72322
0.841432, -0.447181, 2.98134
1.29113, -1.09057, -4.79999
1.09543, -1.37914, 1.14571
-2.45856, 2.6943, 4.43241
-0.915015, 0.464462, 2.69137
0.794007, -3.43722, 7.22035
2.88896, -2.63625, 2.08364
-0.431515, -2.40989, 1.76867
1.50042, -1.00478, -2.50313
-0.744623, 2.36327, -7.19283
2.21233, -0.606045, -2.30543
2.70758, 4.74741, -3.60906
-2.09807, 4.40572, -4.58811
0.515562, 1.52057, -2.88922
-3.5596, -2.55284, 1.89765
-2.66599, -0.428493, 5.7038
3.57568, 3.69605, -1.08859
-2.1936, 1.59985, 1.24249
1.51373, 2.09872, -7.24026
0.777661, 1.83609, 2.54476
2.04201, -3.19719, 6.03658
2.32183, -3.11372, -8.79151
1.25843, -1.91296, 3.73139
0.222499, 1.36934, 3.45561
-7.95077, 0.0676837, -5.33795
5.19801, 4.88354, 3.93628
1.22207, -0.341141, -2.23917
-0.323347, 1.92696, -3.30361
1.11389, 1.84857, 3.59942
-1.63182, -1.04152, 4.60042
-1.22912, -2.32902, 8.63222
0.401449, 1.57535, -1.51095
-2.7187, -3.8134, 3.19412
2.38644, -0.272224, -2.94804
-0.339093, 0.84468, -2.56398
1.53575, 1.38432, -1.74909
-2.71419, -1.8666, 2.7156
-3.74407, -2.19779, -3.89248
0.840163, -0.489604, 4.4318
-2.71127, -3.53356, -5.29913
2.36444, 0.88004, -1.97156
-1.88154, -2.76604, 6.06874
1.7493, 4.35947, -2.80724
-4.64196, 0.928935, 2.99184
-0.0780001, -2.66966, -0.718199
0.371694, 1.65901, 4.75514
2.10778, 2.77808, 3.06113
1.04202, -1.76721, 0.570559
0.127309, -1.08583, -4.86232
-0.29553, 1.91481, -0.569603
0.0277098, -2.00609, -4.22288
-1.32146, -0.523161, 5.2291
-2.61461, -1.94467, 3.91132
-3.02933, 3.05035, -5.42707
1.52699, 1.55528, 4.4059
-2.01916, 0.684279, 1.19556
1.38089, 0.695057, 3.35118
-0.600944, -0.791155, 3.38361
-0.151974, 0.915048, 1.90984
-2.12673, 8.21625, -8.54382
-1.02594, 1.24904, -2.50143
-0.706087, 2.48842, 2.91117
-0.548702, -2.47498, -1.96943
-2.80198, 4.6953, 5.21649
-0.610487, 1.4735, -1.08703
-4.7461, 3.26493, 6.80858
-5.50984, -0.157309, 2.64871
-0.757976, 2.56071, -1.89874
-0.399848, 4.52542, 4.06789
-1.16226, -0.128212, -2.05418
0.527256, 0.390712, -2.2041
3.22722, 1.84068, 3.85733
3.46303, -0.228281, 3.21437
-1.55266, -2.89554, -2.77281
0.586302, -3.19044, -5.35454
-0.681121, -0.457134, -3.33151
0.572376, -2.06938, -2.31915
6.82948, 1.48542, -3.57738
3.73095, 0.769487, -4.42064
-2.39376, -1.48944, 4.24229
1.36254, -2.24167, 2.56298
1.48682, 0.459185, 3.78817
3.71021, 0.527464, -0.94991
1.06695, -0.218301, 2.08626
2.0945, -0.366692, 7.0001
-0.533709, 0.503891, 3.49366
2.51121, 0.40804, -4.04155
1.55042, 0.187289, -6.20902
0.214478, 0.747886, -2.9401
3.92323, 3.18565, 2.64525
-1.52282, -0.0468616, -2.51949
0.466832, -0.176692, -3.37943
4.07875, 2.96186, -9.26976
0.155964, 4.7504, 2.04557
-2.73452, 3.07874, -3.75635
1.97842, 1.32552, -1.27477
-2.09823, -3.2517, -5.38489
0.00966421, 2.1778, -0.423303
-0.573257, -0.288593, 3.26545
-1.73841, 1.54137, -6.12725
-2.59427, 2.68522, -6.2228
3.81675, -4.18404, -6.42162
-1.70911, 1.92083, 2.60531
-2.59843, -1.61857, -2.92337
3.85364, -3.65772, 3.35261
-3.43321, -1.38422, 2.57328
-2.89879, 2.10619, 2.45086
1.63423, 1.03271, -0.833423
3.18978, -4.07445, 5.32254
-1.21425, -0.814355, -3.63249
3.16353, -2.16835, 3.45811
-0.725798, -1.33196, 3.28196
1.21083, -0.244292, -1.99278
0.595969, 0.439771, 9.90533
-2.0523, -0.647656, -3.29543
6.92033, 0.00635598, -3.17789
-0.950975, 2.48886, -3.45245
2.84041, 4.33408, -2.28008
4.93462, -1.5258, -5.32612
-7.26002, -2.98067, 5.2352
0.555175, -1.26943, 7.5003
-0.25662, -0.0427348, 2.98883
-0.485133, 0.805972, -1.57872
4.51342, -1.17613, 3.44341
0.17105, -3.38977, -6.63314
4.0086, -1.60519, -4.96239
-3.80306, -5.69488, -9.15753
4.15981, -1.10803, 5.16849
-1.79091, 2.60633, -3.93526
1.37097, -2.73117, -3.40218
-0.742577, 0.261148, -5.96864
2.51364, 1.27812, 2.93806
3.41876, 0.422326, -4.96993
-0.197274, 1.12923, 1.0191
-5.21387, 8.08169, -7.10517
-0.280125, 0.979293, 1.03631
-3.0783, 3.43713, 3.92699
-1.95527, 1.54651, -5.6722
-0.275013, -1.36886, -10.9427
-0.285864, -0.931937, -2.62349
0.17041, -2.71411, -2.48297
2.95607, -1.09628, -1.36544
1.82261, -3.08598, -4.66088
0.750843, 0.280134, 3.66121
-3.3298, -5.30946, -9.11299
-2.12546, 0.168278, 2.03958
6.68749, 0.0407741, -8.75423
-0.23563, 0.598991, -6.54606
0.682232, -1.36149, -6.41365
1.44117, -0.710385, 2.64127
-1.52863, 1.45602, 1.27159
1.36632, -2.32186, 2.45392
-0.612514, -1.50612, -5.21262
-0.755524, 0.866781, -5.1291
2.46286, 0.634015, 2.04323
0.2358, 5.66681, 2.97227
4.98226, -1.58429, -5.82912
1.48116, 0.421563, 6.45313
4.34063, -0.622875, -4.92806
-1.10842, -0.529772, 5.35708
-2.05492, 4.25669, 4.9475
-3.24321, 0.382916, 2.83087
5.58068, -4.08691, 5.96504
-1.42376, 1.24283, 2.8406
2.64159, 2.27584, 8.80424
0.784698, 2.62048, -2.0893
-0.983235, 1.11066, 2.72916
0.589934, -2.16234, 3.43045
-0.172881, 2.34313, -3.76763
-1.75624, -2.67098, 1.93093
0.596302, -5.23845, -8.19823
1.4063, -1.74035, -1.55739
-2.52697, 0.938009, -2.0195
-2.71835, -2.19664, 3.96377
-4.21476, 2.87964, 3.77989
-1.45433, 2.4267, 1.62995
-1.39514, -4.78009, 3.34421
-3.21981, 1.6666, 5.76524
-1.03136, 0.513687, 4.37692
1.06586, 1.38825, 3.03458
-2.06285, -3.63511, 1.94407
-1.32169, 0.051876, -0.887186
0.887245, 2.63923, -5.49094
0.387395, 1.05265, -3.30327
1.04465, 2.4534, -2.10524
1.4611, -0.480608, 3.26226
1.14217, -0.846307, -3.51771
1.91736, -1.78163, 1.02299
2.97439, 7.77338, -5.93905
0.724197, -1.37815, 3.14036
1.45126, 3.50044, -2.65322
2.01957, 2.12647, -1.24322
-2.54028, 2.66729, 3.07554
-0.127243, 2.21695, -4.3003
3.13125, 1.28709, 2.93761
-0.737688, 0.727343, 3.11423
0.32998, -0.181805, 4.88117
-0.708488, -0.775681, -2.9731
-0.56062, 3.42939, 7.38177
-0.137688, 2.48938, 3.2464
0.222284, -2.622, 5.63886
-0.0601631, -1.14342, -2.65711
0.775686, 1.59396, 1.09131
-0.27961, 2.52854, 2.30109
-0.287735, 1.03355, -3.78016
-0.0457062, -1.35356, -2.25595
-1.38059, 0.069592, 5.1813
1.16041, 0.635657, -7.18077
-1.10333, -0.275395, 3.0268
3.63196, -1.9615, 3.52939
-0.601371, 1.47117, -6.78843
0.995872, 0.641851, 1.05419
2.94278, -3.40491, 3.63645
-2.41431, 0.3482, 2.0663
2.69774, -4.39289, 8.1782
1.15932, -2.60294, -2.39611
-4.1365, -3.08742, 2.98794
0.847276, 5.6264, -3.11821
1.91739, -2.67906, 3.70937
0.524682, -0.712057, 1.69
1.25671, -1.01473, 2.05168
-2.42423, 3.41514, -3.07851
-3.89938, -3.34572, -1.08894
2.03256, 1.88622, -1.03712
-0.267667, 0.686872, -4.81961
-1.54687, 1.55658, -3.46883
-2.05438, 1.45072, -0.663106
5.8207, -1.38522, 6.24057
-2.07905, -1.75013, -3.41121
0.837427, 0.692707, -2.33492
2.05965, 0.50495, -4.89282
-0.367379, -5.04532, 3.11753
-0.457301, 1.69199, -3.92459
1.62563, -0.749453, -3.9671
0.714315, 0.519768, -1.47641
1.46423, -2.84469, 5.80425
-2.02378, -4.65149, 7.1575
-1.81707, 0.777375, 5.10889
-0.71924, -1.99171, 1.43711
4.10327, 3.59596, -7.63655
0.364339, -0.717203, 1.81403
0.521219, 2.51449, 1.34964
1.10792, -1.84085, -7.73845
-3.83782, 3.8892, -3.11492
2.50718, -3.01427, -4.12243
0.177244, 0.440244, 3.87798
1.18356, 0.31628, 4.42527
4.10788, 3.83695, 2.10119
-0.909032, -2.75009, 5.22967
1.92185, -0.946545, -5.85573
-4.0623, 1.58183, -4.76586
3.56046, -1.8578, -1.47604
-0.845521, -0.152014, 1.48655
-0.689529, -1.56355, -3.09851
0.398787, -0.259508, -4.01896
-0.254634, 0.812908, 3.00049
-3.38908, 3.38055, -4.35058
-1.05652, -4.96375, 3.66633
-4.62828, -1.01799, 2.37943
-1.06215, -1.14692, -6.61374
1.50728, 1.51239, 3.39169
-0.379516, 0.592072, 1.84913
6.12621, -2.85176, -6.27044
2.48026, 0.291636, 5.10784
-1.24077, 0.163052, 1.80833
-3.18447, 2.35068, 3.98923
-0.364783, -3.22872, -4.63156
2.63008, -1.79531, -0.834819
-0.468991, 1.74341, 1.93296
2.62661, -0.488264, 6.08672
1.66426, -0.826369, -1.46449
1.37134, 5.87304, -3.71325
4.84844, -7.40621, -3.48538
1.70443, -2.28866, -6.05819
3.08873, -0.473878, 9.48835
1.85896, 2.0058, 6.79201
-0.819474, 0.110474, 5.45989
-1.34124, -1.41075, 3.23885
-2.11625, -0.0544401, 1.80062
-2.99073, 3.25348, 2.10337
-1.2689, -1.66099, -2.32013
-1.21133, 1.6671, -1.93826
-1.61505, 1.95111, 2.04278
-0.726906, 6.73927, 3.18618
-0.578626, -0.567686, -2.82695
-0.946362, 1.05185, -6.08045
2.7128, 2.66763, 2.84291
1.86725, -1.8405, 2.33297
2.77482, -3.25587, -4.5441
-4.44953, -10.0947, 5.36002
7.00023, 1.63514, -3.96483
-0.719419, 0.0248577, 2.53117
0.983939, 0.665899, -2.38605
2.01352, -1.73166, 3.12847
-3.69796, -0.110276, 2.82506
-1.3559, -0.26425, -4.60446
0.958765, -0.113407, -2.2038
-2.57519, -1.21858, 1.72037
-1.56132, -2.06226, 2.52588
0.909578, 2.07209, 1.88022
-3.30189, 0.642398, 4.62377
1.65793, -3.76834, -3.58186
2.06788, -0.489141, 3.45559
-1.39453, -0.232541, -1.11741
1.06448, 2.01532, 5.41782
1.12569, 1.18552, 1.63676
-0.756887, 2.05472, -2.90634
-1.77264, -2.46661, -5.26188
-1.42307, -1.40619, 2.8208
-0.810437, 0.161038, 7.20972
-2.36195, 1.96348, -5.26777
-2.03874, -4.53647, 3.1534
0.222974, 3.02182, -1.13264
-1.48938, -0.817959, -5.01627
-1.2853, 1.11214, -1.926
-1.51941, 0.162806, -4.36052
0.817387, 1.04674, 7.77569
-0.354211, -0.114472, -6.28464
2.29654, -0.324995, -6.11027
-2.77859, -1.66171, 10.0444
1.11893, 3.54756, 2.48169
-1.4802, 4.1574, 4.9761
-2.89178, 2.24614, 5.76039
1.73555, -2.13646, 1.88892
0.519351, -0.0200103, -1.3945
5.21501, 3.84465, -3.86751
-1.54364, 1.3141, 4.84472
3.68367, -1.09857, 2.39668
-0.63796, -4.33163, 2.80006
-1.88206, 2.40656, -2.28123
1.49099, 8.51506, 3.50001
0.962228, 8.0083, -3.88177
2.18384, -0.260186, 2.53193
-4.31793, 0.764508, -8.33248
-1.81196, 3.55022, -2.48777
0.299236, -2.58494, -2.55953
3.13892, -2.08027, 1.71137
2.05804, 4.32298, -6.82891
1.31764, 3.5331, -4.72127
-0.851129, 3.39011, -1.57973
-1.01879, 0.9662, -0.943505
0.763886, 0.274444, -3.81935
-3.19597, 2.53501, -7.79578
-2.54253, -0.971754, -1.69191
0.887405, -0.736768, 4.75128
-4.18817, 3.35022, 5.01814
2.51633, -1.35097, 4.31058
-0.785752, -0.121582, 3.9176
-1.97967, 4.55057, 8.64091
1.10622, -5.23459, 5.86465
-2.52472, 1.38649, -7.32184
-0.477448, 1.30304, -2.22824
1.66584, 1.73495, -3.42502
-0.0903367, -1.28222, -2.4577
-2.16759, 3.5174, 2.24341
-0.690579, -1.5242, 5.59546
-2.24073, 2.77692, 3.91441
0.00272545, 3.49387, -1.55099
0.328002, 0.309484, -4.20381
3.08705, 0.152049, -3.14098
-1.86551, 2.22502, -3.28421
-0.336482, -1.6557, 0.724414
-1.65641, 0.0787, -0.702799
0.655978, -0.286778, 3.95333
1.05772, -6.41463, 6.17899
3.46065, -1.10703, 2.64154
0.35698, -0.0256173, 3.70602
0.060784, -2.21615, 1.18909
-6.85814, 3.72325, 4.69028
-1.60395, 0.433378, -1.68909
-0.310326, -1.07499, 2.04286
1.95506, 0.512636, 3.94496
-0.268989, 0.981259, 0.542955
-0.430714, -4.01487, -4.82198
-0.583011, 1.34003, -2.64111
1.72546, 0.918089, 2.05758
1.87916, 3.01408, 3.44128
0.44477, 1.36591, -9.4883
-3.39135, 5.36286, -8.77766
-0.267208, -1.37642, -8.05765
-0.498731, -0.990713, -1.84837
-3.89548, 3.17399, -1.66255
4.30997, -2.87068, -6.24577
4.49155, -3.56639, 1.58941
2.90977, 1.53536, -1.31116
0.132367, 2.47511, -1.92162
2.18362, 0.572584, -5.66413
-0.270968, 2.73985, 2.1229
-2.91272, 3.90255, -5.82766
-0.9563, -3.3774, -3.8441
-2.35817, -4.13583, -0.985365
-2.79929, 2.79522, 2.06639
0.661898, -4.72852, -4.1762
-1.78895, -0.927121, 2.08741
1.56591, 1.60461, -1.31794
-2.86384, -0.101911, -2.35824
3.10363, 0.436501, -4.34877
0.535219, -1.20982, -4.17404
2.32159, 0.0833115, 2.68981
0.944118, 2.1396, 2.95536
-2.87877, 0.280072, -3.55132
-2.25598, 2.67301, 2.75667
-0.847216, -3.34563, -2.08469
0.834782, 3.53274, 4.02398
0.453695, 5.36983, -4.91576
-1.68377, 1.10136, -8.2939
-0.852542, -0.72184, 3.54304
0.779337, 0.219148, -3.0469
-1.03841, -1.92435, -5.13421
-2.71414, -0.932065, 2.89698
-0.431139, -1.68406, 1.38547
-0.750743, 1.54664, -1.69606
0.0464212, 0.409241, -1.17695
-0.73819, -0.907718, 5.63977
-0.183641, -0.149252, 2.13571
3.3789, -1.67731, -2.88065
0.227569, -2.85115, -3.4434
1.3224, 2.90158, 3.10245
-0.858733, -1.30451, -0.890092
2.85733, 2.04368, 2.06286
-1.48866, -0.815594, 2.1227
-0.204782, 0.51528, -1.48202
-6.94541, -4.10692, -3.05917
-2.0358, 1.18455, 6.48905
6.08761, 3.37465, 4.49394
0.0700555, 0.19356, -1.60702
2.63746, -1.65136, -7.75518
0.828658, -0.646017, -3.27347
0.683829, -6.28182, -9.38857
1.23528, -0.823594, -2.18755
1.26849, -0.0317538, -2.77638
1.25288, -0.932858, 3.01063
2.26765, 0.783555, -1.70741
-2.37952, 1.69451, -3.80959
2.42817, -1.83626, 2.29067
1.18907, 1.12494, -5.23687
10.9551, -9.30119, -7.33255
1.59469, 0.969309, -3.43143
2.61285, -1.43148, 2.55337
2.82716, -0.757149, 4.7526
0.840693, 0.105341, 5.0958
-0.443313, 0.559445, 4.65379
0.713873, -1.26694, -5.26743
-0.999203, 2.22521, 5.02763
0.505512, 0.976959, 2.52739
-2.67432, -2.11222, 4.568
3.23407, -1.42048, -2.11177
-2.42565, 2.16599, 6.69404
3.35725, -0.787895, 5.13357
-2.132, -0.439725, -7.55113
-1.26152, 1.9683, -4.98352
-0.806387, -0.730193, 0.541812
-0.668499, -2.18483, -3.82732
0.292038, 1.1754, -3.55803
-1.5676, -3.19753, 2.80652
-1.52533, -1.1653, 4.81781
6.4907, 8.14924, 6.49251
-1.38153, 3.41344, -3.02044
0.05058, -0.387338, -1.73404
0.815844, -1.90241, -5.93366
0.821616, -0.614687, 2.90185
-1.1596, -0.628541, -4.89739
-1.7288, 3.07426, -2.4766
1.31705, -0.800117, 2.20079
-0.769444, 0.819224, 3.2087
0.466378, -1.9418, 1.87329
2.23823, -1.30248, -3.18179
-0.28535, -0.676692, -6.57232
-2.52559, 2.58623, 3.03028
-3.89838, -0.551925, -2.28611
-2.26587, -2.32223, 2.47311
-1.42739, -1.06288, 3.76089
0.558449, -2.07344, 2.03988
3.93457, -8.68434, -0.719943
-0.940136, -2.61606, -7.68792
3.35851, 2.47037, -6.87069
-0.225695, -0.904528, -3.33858
-0.347417, 0.666681, 0.998944
0.97447, 0.745873, 4.12816
1.92268, -4.81533, 5.24036
-2.09989, 1.06079, 3.8989
1.40972, -3.26556, -1.82446
2.64355, -5.88274, -3.63899
0.814184, -8.07134, -3.86823
-1.70384, 3.9201, -2.88539
-1.83808, -0.758685, 1.0632
4.41859, -2.12629, 8.4644
3.1675, -1.2112, 7.61102
-2.00476, -2.18201, -3.54924
0.0764741, -2.05163, -4.73885
0.089381, 0.383066, -2.7741
-2.1131, 1.97235, -5.20905
1.3466, 0.378984, 5.20022
2.52144, 0.493206, -4.97914
3.1764, 0.0786527, -4.99128
-4.16379, -1.1175, -8.52628
-2.21683, 2.15439, -2.93294
2.9463, 1.31181, -3.62568
1.27241, -0.532461, 2.44374
1.10534, -1.11837, -4.73544
3.90665, -1.72842, 3.37646
-2.47868, -0.754227, -7.37068
-0.0283831, 0.8024, 2.32024
1.98266, 11.0564, -13.5651
-2.03633, -1.90781, -2.26334
-2.88265, 3.72437, 4.87782
-1.55539, 0.208212, 2.8187
-1.22611, -0.472941, -1.24052
-4.42122, -1.80393, 6.2806
-1.59673, 0.783184, -5.7158
-0.0446564, -2.24341, 1.17567
-0.370512, -1.79639, 2.58038
-0.0263499, -0.221203, -2.80628
5.76628, 0.100784, 2.34398
0.350415, 0.214522, -1.63918
3.441, 4.38322, 5.91983
1.24194, -0.921553, -1.78596
2.24797, 1.41575, 1.53245
-4.44021, -1.72755, 3.79014
-1.0643, 2.37135, -4.20042
1.02048, -1.6489, 2.04162
0.45736, 6.68065, -4.59822
-2.40209, 0.201019, -4.44683
5.86741, 2.28481, 2.8811
-3.89713, -1.7381, -6.7864
-3.15208, -2.81342, 1.33215
-4.75386, -0.0847436, -7.16232
-0.371215, 2.09416, 1.89897
-0.883817, -1.41931, -6.44697
-0.312712, -1.66266, 4.02633
3.10192, -0.969427, 3.76386
1.26511, -3.85894, 2.60017
4.1996, -1.90069, 3.32285
-5.52536, -0.335628, 7.29754
0.462233, -2.76708, -3.54459
1.04003, 3.53969, 3.10067
2.20959, 0.751421, 3.32027
-3.37808, 2.25426, 5.70663
-2.33959, -1.85906, -5.6615
2.69317, -2.43629, 1.93955
4.4081, -1.20882, 5.64345
0.951525, -0.523666, 2.04254
0.132813, -0.110781, -0.554437
-0.792245, 0.487662, -1.92119
-2.18393, -6.46671, 7.84773
2.37148, -4.22952, -7.2576
0.948217, 2.35743, 5.64006
-3.12781, -1.70351, 2.60892
1.82832, 0.540705, -3.42661
-2.1138, 1.6027, -5.26498
-1.50893, -4.2348, -1.93232
-3.57558, 2.59145, 2.48596
-1.8058, 1.37963, -6.83465
-1.49339, 0.383091, 2.57686
-2.44178, 3.17148, -3.48969
-1.91956, 0.752958, 2.82514
0.984292, -4.57463, 4.293
-0.248064, 2.76567, -1.00195
-2.28613, -2.59914, 2.27876
-1.36549, 0.162576, -3.73833
4.60184, -1.94306, -3.25809
-0.761848, -0.00298634, -2.97406
-1.38297, -6.23826, -3.46235
-0.0156625, 0.506863, 2.04513
-5.24162, 2.09514, 5.81896
1.23907, -0.187593, -5.3594
-0.0639282, -0.410727, 1.71409
1.491, -3.02016, 6.18137
2.98576, 2.6121, -2.6
0.652537, -0.0487374, 3.05585
3.74582, 1.78854, -8.67752
-0.0996115, 1.32696, -5.64787
-2.19243, -0.756648, 3.72713
-1.01403, 0.782843, -4.24922
2.50697, -1.51201, -2.39279
-5.12043, 2.08337, 5.77002
1.30081, 2.26939, -2.61925
-1.37674, -2.34428, 3.50971
0.141439, -5.52567, -4.91517
1.79221, 2.02901, 4.29158
2.66203, -1.34327, -5.35149
0.520517, 1.93559, 5.74297
-0.171893, 3.00865, -4.00844
-0.509554, 0.592768, -1.1955
3.52003, -0.383439, 5.2708
-0.757751, -0.0934557, -7.32116
1.49097, -0.988797, -4.85675
10.5615, -3.45613, 7.26958
-5.28807, 1.46846, 2.0507
-1.55374, 0.233913, -5.24086
-6.58951, 0.344552, 3.9171
1.10497, -3.23537, 3.64352
-6.85113, 3.1838, 6.41315
-0.776346, -1.93946, -4.41505
0.294882, -1.20419, 0.896646
-1.34278, -6.75086, -3.6437
2.12558, 0.384165, 5.42783
4.40153, 2.06846, 5.24147
-1.87762, -1.70755, 1.16741
-1.97229, -3.14165, -4.96308
-1.57801, 1.04397, 1.65611
-0.429377, 0.36319, 2.6101
1.29364, -2.7855, -4.72221
0.877234, 2.53054, 3.50659
0.177665, 0.113177, 4.27397
1.34451, -3.40425, -2.41029
-5.6791, 1.67139, 5.56813
-0.172912, 0.982987, 2.42061
2.47579, 2.49568, -4.22706
1.79281, 2.44458, -0.73784
1.32661, -2.49168, 3.77534
-3.95771, -1.77734, 3.45464
2.95163, 6.43416, -5.92882
-1.92086, 0.490977, 4.72224
1.07186, 2.27113, 6.20042
0.282278, 2.48905, -1.40952
1.59359, 1.55369, 2.27132
-3.14141, -2.29682, 4.84694
-1.01423, -1.9519, -5.05673
0.531262, 3.21545, 5.18943
0.14734, -0.292254, -1.80798
-0.891318, -1.57004, 0.671225
-6.73403, -7.10773, 4.43796
0.290297, 0.243686, 1.98696
0.244976, -1.38031, -2.70113
2.97234, -1.43223, 2.67504
7.08352, 1.26011, 3.80019
-1.53754, 1.39683, 3.00547
-1.29835, -2.49102, -4.50025
0.8353, 1.16299, 4.0065
0.560431, -1.0211, 3.43435
1.25388, -1.8975, 1.44763
-4.54818, 4.4055, -3.72141
-1.46461, 1.52569, 2.51739
1.31888, 1.60398, -1.5244
1.14682, 3.22869, 5.05108
-5.02135, 2.80728, 2.34532
-2.27452, 1.71787, -2.51891
-1.29035, 0.15977, -2.32998
-2.49714, 0.678405, -3.23926
3.6772, -2.06993, 1.57085
-3.55357, 5.82126, -7.0474
-2.03712, 0.131164, -4.23598
-0.477011, 0.105137, 5.97137
-1.82528, 0.00257846, 5.42979
