3.03273, -1.68489, -1.77928
-0.624265, -1.46633, -8.21363
-0.372248, 1.16291, -3.22409
-4.44745, 5.23564, -5.08656
-0.778336, 3.6781, 6.39108
1.68466, -0.917616, 1.59601
-1.27944, -0.636759, 1.54023
-1.50083, 3.65922, -7.71717
0.792802, -1.18666, 4.24444
0.652069, 0.26537, 2.11618
-1.7836, 0.827973, 3.14931
-0.192828, 0.890699, -1.94424
-0.945956, -0.985083, -1.02584
-1.58581, 2.0083, -0.863704
0.946842, 0.216321, -2.96423
1.33342, -5.48048, 1.45877
1.8089, -0.714007, 4.38764
2.24616, -1.5417, 2.13738
0.241507, 1.0422, 1.85242
0.0959777, 3.35777, 7.05466
1.37949, 4.89693, 1.90483
1.61623, -0.050368, 3.80922
0.364147, 3.7916, -4.433
2.62855, 1.78016, -6.34224
13.1175, -5.05369, 7.59381
1.02628, 1.58201, -1.7238
1.6284, 1.57924, 4.52989
-2.3208, 2.18927, 4.4846
0.00246464, -0.448585, -0.637829
3.2293, -2.23291, -1.69513
-2.29026, -0.307077, 13.0158
-2.9373, 0.1469, -5.2845
-1.69117, -0.577214, 2.68418
0.576509, -4.55465, 3.11323
1.70129, -2.76579, 1.43923
-0.0192682, -2.45854, -3.582
0.434749, 1.61164, 1.74081
0.0448532, -1.70337, 3.00309
1.50074, -0.342423, 3.19424
1.81021, -0.206687, 2.29472
-0.556472, 1.1106, -2.64255
4.26395, -1.26467, 6.62302
-4.90108, 5.38487, -5.85335
1.78737, 4.58077, 5.76559
-1.08961, 0.802447, 5.92416
-0.0177896, -0.92152, -1.65085
-2.17868, -0.640739, 1.16201
0.330998, 0.967476, -2.31579
0.218457, -0.140117, 3.11152
-1.81068, -3.00822, -3.41619
0.81278, 2.11509, -1.81933
0.249678, 8.18771, 8.63884
0.13794, -0.615709, -4.82614
-0.458126, -2.96272, 4.5583
4.18209, -2.55415, -3.56961
-1.88483, -0.376059, 3.15135
-0.315391, 1.59327, 4.64269
2.56661, 2.26869, 1.38862
1.28658, -2.12873, -3.45715
-3.5265, -2.08952, -5.58327
4.95676, -0.946201, 4.4057
0.769002, 4.08629, 3.38548
-2.20267, 2.43615, 4.11282
5.93465, -4.08704, 5.54406
-1.14208, 0.752671, -3.59272
-0.722189, 2.91196, 1.31045
1.80493, 2.55734, 2.22282
-3.09845, 5.46554, 2.01532
-1.13987, 0.0207594, -0.661881
-1.09335, -0.556049, -5.47638
-0.635289, -0.46117, 1.80927
-2.35574, -0.88622, 2.06918
1.89129, -3.02106, 3.03538
0.128219, 0.213697, -4.17495
1.61856, 0.629092, 2.83811
-0.479899, 0.364799, -4.99209
2.26099, 3.12047, -3.59723
-1.16324, -1.16642, 7.34007
0.596545, 0.367762, -1.17062
-0.446588, -2.71829, 7.15711
0.452463, -1.3664, 5.06961
2.51773, -3.02995, -5.28902
1.0888, 1.09687, -1.12759
-0.0700178, 0.8136, -1.08614
1.31277, 6.3799, 4.8446
-0.597838, -3.53787, -3.8263
1.9707, 0.37774, -2.32015
4.60999, 0.572281, 2.3019
1.49994, -0.000421553, 2.82337
2.88215, 2.41331, 4.12015
1.86419, 3.41491, -3.21877
-0.811686, -1.85315, -1.73798
-2.29649, -4.83461, -2.99098
3.36507, -0.733156, -4.86125
0.0954077, -0.473622, 5.26484
0.231859, 1.88799, 4.76883
-3.15369, -3.70385, -5.16452
2.18262, -2.79187, -5.57034
0.850798, -3.57845, -3.27183
-0.660325, -0.101503, -1.61683
0.392529, 1.41841, -2.14223
-3.29963, -0.161248, 2.44983
-2.59102, -0.562625, -1.31975
-0.512206, 0.132726, -3.76858
-1.92049, 0.569017, 3.25546
-2.65542, 2.72349, -4.92814
4.11785, -0.609708, -6.44287
-1.22113, -0.571502, 3.92795
0.0867882, 0.0743718, 4.26824
-0.0377896, -1.69534, -1.99577
1.16222, 0.743207, 4.48009
0.790655, 2.17185, 7.32735
-4.90014, -1.3388, -2.84505
0.733551, -0.36419, -3.20009
-0.0355461, -1.75514, -1.74039
-1.976, 0.733087, -2.6746
-0.063348, 0.665725, 0.88935
-1.98521, -2.34903, -2.87654
-0.344935, -0.751568, 3.19834
1.15001, -1.01154, 3.37892
1.00948, -0.69462, -7.49232
-1.81287, -1.60285, 4.70049
1.44296, 0.230773, 1.57895
1.97246, 1.79674, 3.08283
1.55677, 2.45726, 4.29857
0.110388, -0.447448, -0.568512
-2.64453, 7.69344, 6.27629
-0.360064, 1.65915, 3.75105
-1.65749, 0.684296, -5.06911
1.09557, -1.98606, -2.01958
-3.84032, -2.27355, 4.2968
-4.34266, -0.920455, 3.07188
1.68034, -4.72563, -5.42607
0.173933, 2.20191, -2.1521
3.86822, -1.17811, 3.25085
-0.786444, 2.56559, 5.59029
-0.0850179, -3.04447, -3.91749
-1.15076, 0.27583, 2.12207
-1.13318, -0.0112183, 3.0028
1.20581, -0.301424, -2.50298
0.102738, 0.667211, -5.45924
-0.0221926, -1.42622, -5.17624
-0.160995, -0.180279, -7.26046
2.18813, -3.45006, 2.3695
3.54714, 0.35587, 4.30902
0.252378, 0.690824, -0.55553
-1.53671, 0.891235, 4.81679
1.42089, -0.284419, -1.28957
0.495801, 1.99038, -4.49643
0.16145, -4.378, 6.82388
-1.73195, -0.515679, -4.0525
0.497092, -2.52214, 2.00909
-2.05172, -2.51002, 5.03738
2.0998, 2.97687, -2.81388
-1.27848, 0.539457, -4.09755
6.0087, -1.51359, 3.94454
-1.68936, 2.83371, 4.9636
-1.77543, 0.573949, -8.53841
-1.79288, -0.735356, -5.01195
-0.0218403, -1.14122, -3.71104
0.516274, 2.08632, 3.53809
-1.86445, 0.601973, 7.51509
1.62124, -0.570106, -2.31962
-1.0269, 1.58083, -2.24627
0.557536, 1.49092, 4.9735
0.21798, -3.98455, -4.04363
2.27243, -0.692307, -2.81401
0.997605, 2.17296, 3.10632
-0.00845022, 1.63801, 2.20784
-4.52913, -0.949379, 4.9747
-1.40143, -2.08199, 2.17654
2.09102, -2.60863, -7.17651
0.996499, -2.90332, -5.38731
-2.32007, -2.57511, -4.75981
-2.45579, -2.07146, -4.09873
-2.29941, 1.81866, 3.80936
-2.02931, 3.23976, -2.03995
1.05372, 0.10102, 3.16146
1.93499, 1.02541, -2.12669
0.293961, 1.39005, 2.36089
0.0185936, 2.43125, -3.04258
2.64833, 2.01667, -2.39166
1.68308, -3.86733, 3.63688
-1.2775, -0.171825, -1.90283
0.295545, 1.83281, 2.12625
1.57213, -0.594958, -5.47612
-0.878735, 0.647242, -6.27049
-1.97957, 8.90655, -9.79855
-0.284058, 0.394731, -1.91172
-0.173083, -0.144257, -5.82323
0.33789, -1.0976, 2.82762
3.41029, 1.61922, 4.54515
0.039413, 2.17391, 5.07589
-0.389838, 2.37789, 8.22341
2.30542, -3.16795, -4.65366
-1.55969, -2.24781, -0.921317
-2.28285, 1.02537, -1.46411
1.10699, -1.44091, -5.24955
-1.85681, -1.82118, 2.76907
0.420684, 2.06094, -4.97321
-2.23007, -0.584067, -7.44391
-2.31435, 1.47618, 4.16863
2.53235, 2.39499, 1.71284
0.42024, 1.02075, 4.46754
0.965491, 0.0598112, 2.10372
-1.33047, -1.31808, -3.77024
-1.47578, -0.464341, 2.24702
0.187488, 1.29035, 2.21516
-3.034, -0.0304264, -2.06896
-0.866194, 1.78082, -1.53285
0.415037, 0.965526, 4.82507
1.63107, 1.62832, 3.38665
4.47726, 1.25434, -1.62715
-0.0234884, 1.59471, 1.01386
-2.42367, 4.23054, 5.65657
0.519832, -0.765998, -3.30424
7.15372, 0.456712, 7.79309
2.24239, 0.743174, -4.79112
-0.0572156, 0.911861, 1.0747
-0.220232, -3.27274, 7.55602
0.860998, -2.76302, 2.45813
2.75888, -4.20333, 1.84547
2.56945, 5.28851, -4.90578
0.249958, -0.495194, 1.6625
2.15129, -2.84662, 5.2267
0.599419, 3.11378, -4.04817
2.27704, 4.53915, -2.82106
0.0973848, -0.846561, 2.03278
2.94224, 3.70004, -6.17302
-1.34688, 3.89898, -2.55621
-0.352467, 0.0767897, -4.84546
3.60334, -0.594573, -4.00633
-1.89034, -0.431222, 1.73831
-0.301172, -1.71841, -2.23044
-2.86906, 0.756832, -3.94143
2.03952, 1.4196, 4.11216
-2.69605, 0.270046, 4.67849
1.11319, -3.18901, 2.85862
0.313357, -0.360506, 1.72251
5.21747, 2.70911, -4.55451
2.99591, -1.84739, -3.06228
-0.912426, -3.26323, -3.58221
0.404964, 0.402477, -2.22981
-1.76634, 0.421349, -2.89323
4.66203, 1.54945, 4.19843
5.73422, -2.09068, -2.90995
3.49338, -3.00752, -2.77872
1.20272, -1.76626, 5.21009
1.12377, 3.74388, -5.38624
3.25077, 0.108291, 5.53352
0.0744303, 1.73905, 2.52835
-3.72881, 3.67197, -2.22556
-1.9479, 0.789353, 1.54304
-1.32741, 0.822435, -3.18828
4.49921, 3.82477, -2.30314
3.9553, 2.20246, -3.13121
0.475632, -5.89876, -6.52557
-6.76676, 0.643288, -7.40376
1.38833, 1.78634, 1.72733
1.11478, 0.911069, 4.29193
-0.623226, -0.137285, 2.07696
-0.92049, 0.977611, 0.92728
0.756617, 0.599477, -3.17341
-3.55571, 0.259137, 7.10657
-4.59505, 1.4397, 5.7988
-1.90054, 6.29897, -5.47601
2.65196, -0.932889, -1.75997
-2.92753, 0.273582, -2.21601
1.17217, -0.265985, -8.60381
0.998668, 0.0329395, -2.77835
3.80681, -3.06785, 0.876804
2.37065, 4.56161, 2.99923
1.47231, -0.0111559, -2.08132
1.46892, 5.12811, 4.28065
-1.8467, -0.724764, 1.36013
1.80196, -2.55002, -1.469
-1.46161, 0.329599, -3.55429
-2.21458, -5.2536, -4.49021
-0.674083, 2.26441, 3.46826
-3.33247, 2.77452, -4.03736
0.166959, -0.768453, 2.048
4.92358, -1.0839, -4.07839
-1.21855, -1.67125, -3.07859
0.222263, 2.59717, -1.72042
2.3533, 0.341081, -2.41821
-0.632972, 3.09751, 6.03564
0.117564, 2.76313, 3.05574
0.910731, -1.7946, 4.05443
1.20583, 0.0716878, 4.6716
-0.396847, 0.257476, 2.5445
-2.93316, 1.13759, 1.79078
-1.44134, 1.35194, -6.60234
-2.74604, 1.88518, 5.79426
-0.300119, -0.980546, -6.52696
2.61599, 5.88639, 5.94757
0.0932538, -0.0578415, -4.98125
-6.93587, -3.12823, -7.54784
0.465648, -0.850735, -3.75004
-2.08283, 2.41629, 4.91627
2.19368, -0.133086, -3.59611
-0.750666, 0.0703861, 2.58362
-0.121839, -1.31159, -3.15644
2.93556, -1.06674, -5.61033
-0.0821481, -1.09795, -2.89291
0.640649, -1.99725, 4.8836
-1.20572, -3.51701, -1.90373
0.651191, -0.295394, 1.00883
3.5576, -2.25925, 1.56305
-1.91204, 0.821202, 1.84523
0.94211, 1.28103, 5.42461
1.94135, 0.276959, 4.77058
0.276157, 0.542909, 1.62072
-3.34893, 2.83024, -3.28638
-1.90843, 2.04193, -0.736589
-1.35876, 0.242366, 3.07444
-0.251561, 0.331918, 3.79799
-1.09625, -1.65371, -2.52023
0.877545, -0.995263, 1.23708
-2.47543, 1.01238, -1.84139
0.739416, -0.936597, 1.76786
2.56833, 0.486721, 8.55699
-3.65294, -1.7785, 3.04839
5.75893, -2.13519, 2.82493
0.557999, 0.978743, 1.45425
-2.12559, 1.03868, 4.05544
3.622, 0.801176, -8.17161
-2.25864, 0.312441, 2.94572
-0.847966, -0.164602, -4.4963
4.96275, 2.30942, -1.72741
-0.439683, -1.22326, 3.52071
0.540637, 0.381, 2.80246
2.11258, -0.856899, -2.634
1.42604, 1.47483, -5.33731
-0.160769, -2.10195, 3.67234
2.12686, -2.64779, -4.0472
-1.53085, 7.57697, -5.37879
2.67459, -3.88588, -3.98719
1.66583, -0.37229, -2.86414
2.41484, -5.22046, -4.90655
-2.04728, 4.21766, 6.36253
-4.32136, -0.881653, 3.58294
5.70457, -1.27371, -1.69296
1.04892, -0.239231, 0.754712
-0.012553, 0.046472, -1.26783
-3.23329, -0.3528, -5.02347
0.351027, 2.45524, 3.04831
-0.653897, 0.97844, 4.58843
-2.91133, 5.38019, 2.5419
-3.95535, -2.90118, 2.1024
0.989062, -0.27297, 1.79907
-0.959156, 4.61047, 6.10345
-0.175457, 3.15414, 2.11837
-0.54682, 4.26158, -1.40664
1.21825, 0.181912, 1.47378
-0.62823, 1.4566, -3.02458
-0.844991, 0.50668, 1.96282
-0.730935, -3.84306, -3.702
-1.68071, -0.743994, -4.61741
0.062055, -1.23148, 3.17382
-1.38431, -0.462582, 2.61091
-2.13277, -0.694676, -3.8508
-0.411269, -0.503777, -2.53074
0.82183, -0.681864, 4.8009
0.394031, -0.53841, 3.30606
1.16043, 0.859611, 1.64685
-1.10555, -0.650536, 2.76685
3.46273, -5.16846, 5.39108
-4.82742, 0.727137, -3.73866
-2.46668, 1.29848, -2.28862
0.0104339, -5.0135, 11.0658
-0.354905, -0.13452, 1.72909
-1.79498, 0.783316, -2.48723
-3.99813, 2.9134, 3.68088
-5.77765, 0.881354, 3.66594
-4.02683, -1.72554, -3.15195
1.05647, 1.14968, -2.39631
-4.58397, -1.38295, -8.67605
1.44526, -0.492445, 1.60571
-2.17988, -2.73837, -4.51458
-1.31048, 3.48227, -4.96035
-1.7564, -5.67159, 3.89169
0.352298, -3.45061, 1.50601
-0.651211, -0.84576, 2.51019
-1.43887, -3.64401, 2.99261
-1.0446, 3.26698, -3.80197
1.34106, 1.63142, 6.02969
-0.245699, -1.85148, 1.95676
1.53447, -4.863, 8.49401
-0.418828, -0.895489, 5.06407
-0.744959, 0.20849, 1.21968
-0.382773, 1.21349, -4.01899
1.30953, -0.578412, -4.71678
3.12246, 2.42628, -7.00428
1.58574, 2.48202, 4.12414
3.04914, 1.76711, 7.43536
5.12383, 2.51898, -3.8526
1.69505, -2.36756, -0.530953
2.12113, 1.10201, -3.24013
-0.0670099, -0.699748, -1.81224
0.0412434, 1.56184, 4.43031
6.74216, 0.494753, 6.68074
-1.96172, -0.952458, -2.48694
-0.671728, -2.36196, -1.65597
-2.07309, 0.966102, 0.804824
-4.03667, -3.37401, 3.85706
5.14971, -2.81076, 7.18384
1.7329, 2.05656, 1.76724
3.17072, -2.68553, 8.40711
3.95309, -1.10042, -2.54809
2.23591, 0.324327, 2.02517
-0.530333, 2.38257, 4.50368
-3.1447, -1.01342, 1.49393
2.67237, -0.612184, 2.15766
0.031151, -3.90431, 4.7202
1.54512, 0.238817, 6.70048
1.24085, -1.18059, 2.882
-1.59531, -0.727079, 3.18879
0.121854, 9.76621, -10.8726
5.83892, 0.790418, 2.3492
1.15429, 4.38853, -2.96885
0.599065, 0.151228, 3.2342
-1.8444, -2.33809, -6.55724
-1.11526, 1.13855, 2.0502
-6.94733, -2.29256, 6.26635
1.87473, -1.13417, -4.08723
3.77421, 0.935461, 1.88813
-1.31614, 2.0654, -5.06356
-2.65676, 3.37325, 8.23745
-1.70436, -3.58922, -4.63902
2.65378, 2.22816, 4.10685
-2.643, -7.08149, 5.83529
3.90913, -0.627334, -2.03981
1.34528, 1.65226, 0.986034
1.76641, -1.40841, -3.65048
0.83414, 0.284388, 3.90548
-0.974475, 2.70143, -1.66411
1.20326, 0.862065, 4.69495
1.97212, 0.418274, 1.33622
-0.300081, -0.705739, 4.43093
-1.77503, 0.615363, 4.50729
-1.16184, -0.95071, 1.12383
-1.28572, -2.80416, 2.39688
2.41222, 3.94663, 3.34415
0.898447, -4.68186, -4.27021
1.70547, 2.41973, 5.83243
0.915576, 3.9073, 5.29578
-1.97181, -0.855037, -5.35559
-0.577581, 0.479473, 3.49344
3.67422, -3.4402, -2.49626
0.882628, 1.09829, -0.990649
1.12898, -0.688242, -3.99991
4.85066, 3.2789, 4.90618
-4.50957, -1.52897, 8.51672
-0.586476, -0.285877, -1.53435
-1.32354, 2.25974, -4.75246
4.23405, 6.46367, -2.10968
-2.10352, -1.12029, -1.79906
0.380528, 1.40408, -1.7273
2.42112, 2.13331, -2.97938
-1.4236, -3.65865, 8.05771
-6.20367, 1.5541, -3.1098
-1.47354, -0.932247, 3.19661
-3.93567, -0.41729, -7.04468
0.011202, -2.11847, -1.67965
1.50866, 0.459034, -6.46237
-2.4133, 1.73444, 6.13006
-3.5717, 2.28697, -0.963977
2.11629, -0.999631, -3.83126
1.79953, 0.48445, 4.19779
2.84829, 0.997561, 3.81058
-1.2118, 0.0506266, 5.2634
-3.26276, -1.0227, 5.41084
0.778651, 0.692326, 4.22088
0.670134, 5.06191, 4.48018
-1.32374, 0.307058, -2.39635
4.05548, 2.80211, 3.19643
0.397854, 0.68221, -2.19861
2.55918, 2.15744, 3.69032
-0.364712, 0.488094, -3.50845
-1.33272, 1.48805, 1.33597
-2.61365, -2.28293, -1.97222
0.544996, -0.464523, 4.22843
0.271341, -2.06898, -8.16571
3.63397, 5.41003, -2.75089
-0.682056, 1.1211, -0.578634
-0.855786, 1.37428, 0.80872
-1.50952, -1.42521, -4.89492
0.871289, -0.815435, 2.40364
-0.0234655, 0.632769, -0.910506
-5.63095, 2.57428, -4.30119
0.396506, -2.54228, 5.76697
7.87957, 2.74606, -4.10995
-1.04139, 1.34693, -3.68148
0.181995, -2.58705, -4.52378
0.751417, -0.210965, -7.80317
-3.19663, 4.6055, 2.80767
-2.56924, -3.88929, 3.18179
-3.8517, -0.160895, 2.78077
-2.67145, 0.879761, 2.5456
-5.55219, -0.11854, -4.44563
3.19141, -0.745352, -3.06096
2.17131, 0.56742, 3.26142
-3.56102, -2.79872, 1.50371
4.21383, -1.86278, -5.8067
-0.113434, 4.12615, 4.74668
0.709358, 3.39656, -2.09673
0.375905, -1.00491, -4.27176
4.48721, -1.21327, -2.66731
4.12141, -0.460763, -2.47769
1.22033, -2.08147, 2.87857
2.44822, 0.910381, -3.19935
-8.13036, -0.971984, -4.69323
-2.29873, -1.35665, 2.65782
-3.99451, 0.74326, -5.21891
-1.18658, 0.897591, -1.63992
2.14022, 7.3747, 5.4697
-0.204674, -1.90517, -3.95002
0.513673, -0.795268, 1.21254
2.45092, -0.26815, -5.1912
-0.985905, 1.4768, 0.752123
2.23425, -0.94529, -6.32124
0.450819, 1.39813, 6.55631
0.00223624, -0.510126, -1.14922
-2.7047, 6.77935, -1.95603
1.95359, -0.813444, 3.39935
0.530204, 6.4463, -6.42548
-2.41607, -1.16553, 1.69169
-3.19248, 0.0353625, 3.64003
-1.67835, -1.98427, -5.04765
-4.65435, -5.0857, 4.43364
0.301972, -1.50824, -1.03668
-0.0595335, -0.232417, -3.62079
3.61263, -1.08873, -1.7127
1.16007, 0.723397, -4.45355
-4.21821, -1.46491, -5.04088
-2.89501, 3.12814, -3.23078
2.47468, 1.1725, 2.84527
-0.230965, 0.750154, -2.86935
-2.77081, -0.258184, -3.66313
2.49813, 0.539891, 4.65164
1.48625, 1.8342, -3.51525
-1.01311, -1.11056, 4.94903
-5.9848, 2.40147, 3.5983
0.448557, -1.71491, 1.64647
-1.48139, 2.26642, -1.61487
2.87219, 3.97668, -2.93698
-2.08213, -3.62028, -2.80016
0.704313, 0.290359, 1.82782
-1.62635, -0.850017, -1.54536
-0.151768, -2.103, -2.01029
1.68018, -0.455028, -5.41965
2.0753, -0.995599, -4.22332
-1.5585, 0.91113, 2.34476
-7.42957, 6.56271, -3.38537
-0.054819, -1.91709, -2.84487
-1.24523, 0.29308, -0.706151
1.58102, 1.42934, -2.6863
-2.09764, 2.03727, -2.1923
2.38852, 2.6749, 2.79533
0.713719, 0.203809, 0.505515
-0.768462, 2.43928, 3.36783
1.32651, -2.12219, -3.36978
0.342397, 2.01756, 2.03439
-1.77428, 0.787571, 2.17354
0.581795, 0.288272, 3.15686
-0.571381, 0.851151, 2.66169
1.34846, 5.89143, 4.11091
-1.94667, -0.537617, 1.74968
1.93354, -5.40818, 2.7519
-0.224578, 0.917687, 1.56353
-1.35782, -4.00053, 5.31883
-2.52613, 1.17564, -4.01712
2.41936, 1.72967, 3.16091
-0.29693, -0.833053, 2.88785
0.287179, -0.36108, -4.43148
-2.84943, -4.5213, 4.37013
-2.10888, 1.2503, -7.77815
-0.669451, -0.297323, 5.35294
-0.247927, -0.580807, -1.94487
0.34077, 5.42642, -3.46265
-0.0827538, -2.23419, 4.49421
1.68398, 2.38472, -3.80571
2.44678, 2.35517, -4.99904
-6.01229, 1.44109, 0.818862
5.12648, -7.38541, -2.09284
3.08083, -0.193925, -2.68866
-2.51803, 1.48168, -6.39686
-0.37101, -0.621737, -3.00718
0.753122, 0.903357, 7.69474
-3.60574, -3.74586, 2.91046
4.23314, -1.18873, -5.64781
0.596817, 6.43329, -7.5188
1.09974, 0.145402, 3.41193
-0.759682, -0.535283, 7.23639
-2.50143, -0.104584, -4.04135
-3.51468, 1.87214, 4.22902
-0.948173, -1.8457, 3.87157
-0.627524, -3.54901, -3.68657
4.85865, -1.76708, -7.62367
0.631977, -0.0451215, -0.937086
2.02277, -0.368969, -2.85864
3.92553, -2.33022, -2.34438
0.629266, 2.46485, -3.95288
-1.79784, 1.28207, 8.11819
-3.30009, -3.69036, 6.05743
-2.18593, -0.297159, 3.54911
-0.395739, 0.66109, 3.1824
1.77899, -1.63961, -1.14017
-4.92985, 1.44275, -1.53179
4.05667, 0.207821, 2.6927
0.934466, 0.141157, -5.66476
0.717589, 1.93345, 3.54484
0.205592, 0.0628135, -1.63693
3.48293, 0.468503, -7.83045
-3.91626, 2.72665, 6.69692
3.08615, -0.110453, -2.50061
2.32625, 0.55779, -1.28175
-1.42982, -1.29112, 2.74447
-0.185118, -0.902466, 4.4435
0.280672, -6.86625, -3.90367
1.2266, -2.25643, -2.5914
1.56122, -2.14142, -3.16069
-1.26556, -1.24122, 2.26022
-0.772125, 0.0927222, -4.54839
-0.250522, -0.591717, -1.23039
0.619923, 0.624611, 2.91551
-0.224713, -1.28354, 5.20125
-0.0767452, 2.85921, -5.34928
-0.917847, -1.00879, -2.33551
2.56852, 1.88888, 3.93181
1.13594, -0.969164, 3.6032
-3.54591, 0.710318, 5.64754
-2.80162, -0.209446, 1.92302
-0.640501, -0.361361, 1.68713
1.90978, 3.08043, 8.82626
2.82957, -0.427893, 2.93378
0.406926, 0.789182, -2.80951
-1.99471, -0.0529754, 1.98047
-1.19535, -1.62396, -2.94807
3.0068, -0.823616, -2.06957
2.35141, -1.80469, 5.23616
3.52678, -0.589788, 1.11966
-0.508448, 0.848298, 2.34798
-0.773293, 1.04031, 2.55011
-2.06372, -1.47327, -3.3666
-2.59218, 4.78282, -3.62993
2.38287, 1.11904, 1.34008
2.83057, -0.855925, 2.02688
-0.20406, 0.80835, -3.63398
-0.426027, -0.768823, -3.70873
0.0332959, 2.22182, -3.61741
-0.600888, -3.07251, -1.50186
-0.916497, -2.12329, -4.27292
-0.102163, -0.611844, -2.08947
0.526788, 0.141577, 4.0927
-0.769285, 2.1669, -2.48138
2.50302, -1.50396, 3.92688
-0.263566, -2.74555, 6.49922
0.499355, -2.08256, -3.83546
-2.55831, 1.18746, -2.30212
-4.82202, 4.87995, 3.3752
-0.324729, -1.95191, -8.69282
0.107149, -2.10282, 7.69387
2.48073, -1.42844, 5.04091
2.72408, 2.59261, 0.744899
-5.44449, -6.40805, 2.70367
0.119727, 0.373774, 1.74267
-0.810572, -5.42323, -3.6963
-0.452967, -1.26134, 3.97162
0.012846, -0.811211, 1.758
-0.559908, -2.15407, -6.54924
0.535057, 2.3135, -7.28047
2.36833, 4.06323, -4.0258
-0.932536, 0.446512, 4.39982
-1.7744, 3.27877, -5.98614
0.904482, 1.80259, -4.08755
-0.273894, -1.9068, 1.64349
-0.114987, -1.16638, -5.60738
-0.994916, 2.47451, -5.57959
0.727774, 2.52174, -4.33551
1.23651, -1.81637, 1.66105
-0.528843, -0.00651514, -1.84228
-0.518632, 1.27783, -4.76516
-1.838, 0.651021, 3.3797
1.02163, 2.57902, -5.25328
-2.10526, -5.96472, 7.52125
-1.77189, -1.79987, 1.85454
-1.2624, -1.01613, 2.34122
-0.635553, -3.95686, -5.65172
0.194963, -4.18208, 8.41027
0.962588, -1.31576, -0.984076
5.92887, -2.13877, 2.29887
-2.42059, 0.5316, -4.67746
1.65029, -0.750859, 3.78922
-1.0469, -0.414014, 2.4249
0.469221, 1.04759, 3.10683
-0.794347, 4.98105, -2.08354
5.44655, 2.47916, 3.96632
2.82932, 0.663289, 2.28932
-6.24241, 0.701027, 2.34482
0.35565, -2.20674, 5.62117
-0.0440434, -0.354672, -2.10672
1.02549, 0.829352, -0.487503
0.156659, -1.84207, -2.53988
1.82289, 1.24254, -3.51692
11.5008, 0.978799, 4.90522
-2.60159, -0.187454, 1.42768
-2.95147, -1.4044, 2.53975
1.92388, 2.83533, 2.23388
0.875227, 0.297353, 1.1142
0.646829, -1.31048, 2.10474
-1.37642, 1.09452, 1.82
-1.70216, 1.07222, -3.66792
-1.2332, 2.49848, -5.31778
-3.00931, -3.06286, 1.95376
0.649952, 0.149862, -4.87005
-1.46331, -0.896029, 6.50194
0.433147, -1.65701, 3.60165
0.274205, 1.41794, 7.14342
-0.755423, 2.77948, -2.72908
-4.0202, 3.90547, 6.51125
-3.6207, -3.05941, -2.47672
3.22197, 0.782616, 4.93703
3.07026, 3.97613, -3.3053
0.272691, -1.2453, -0.896715
2.98841, -1.5238, 3.58558
0.00637698, 0.848856, 1.35299
1.25179, -1.3682, 2.57326
0.629851, 0.78193, -4.50256
-0.00151067, -2.72384, -2.335
0.597831, 2.48736, 4.15141
-2.07386, -1.48762, -2.79624
-0.239908, 0.297459, -2.62698
0.588176, 3.33562, 4.06536
-0.310467, 2.23348, -1.07211
-2.31188, 1.10753, -2.97487
-2.23662, -6.85268, 2.5792
0.772678, 10.1636, -3.58966
1.71286, 2.09982, -3.21479
-4.3966, 5.20873, -5.8775
1.47293, -0.720653, -4.04002
2.46098, 2.82676, -3.96388
-3.35453, 0.469882, -3.7191
-0.715991, 3.25673, -7.44096
-1.71141, 2.21003, -2.30154
-2.06195, 1.20764, -3.14037
-3.45445, 2.58181, 3.30321
0.235732, -2.71077, 1.77961
-1.87054, 1.50727, 3.11291
6.72174, -1.59644, 6.66737
-1.06578, -2.3577, 3.5407
0.202227, -0.379334, 3.59335
-2.08222, -1.02772, -3.13341
2.40127, 4.01535, -2.22455
0.520497, 0.915126, -0.970921
0.290752, -3.7424, -2.65359
-0.0339103, -1.82581, 2.31475
0.454006, -0.252411, -3.14097
-0.464107, 0.12476, -2.66398
-0.618687, 1.69996, -5.21687
-3.83898, 1.01527, 5.47917
3.16706, -0.121819, -3.39448
1.17474, 0.037976, 2.05069
4.31856, -1.94384, -2.93195
-2.66402, -0.605637, -1.10619
-2.00182, 0.498924, 3.56945
0.29271, 0.532248, -8.3705
2.13565, 0.707966, 2.55991
0.85258, 0.679451, 2.30144
1.57156, -0.175317, -2.18821
-1.18009, -1.55682, -3.7065
-0.138184, 2.58502, -1.98436
0.254972, 0.882182, -5.3824
-3.58187, 0.256352, -1.23262
-0.76211, -0.48647, -2.49272
-1.48384, 1.3734, 5.1582
-0.0164353, -1.95554, 1.76796
-4.71649, 0.306478, -5.33543
0.399355, -2.26629, 2.37237
0.000146479, 0.696594, -3.93102
-0.0594898, -2.718, -4.7657
1.66952, 3.84177, 4.78284
3.4215, -3.40964, -6.72767
-3.04108, -4.52598, -5.04416
0.663376, -0.284703, 4.34579
0.0526193, -3.893, 2.59419
-3.29813, -0.423784, -8.7735
-0.847029, -0.21517, 3.24798
0.789935, 1.88279, 4.60142
-0.101188, 0.15894, 9.11011
-2.61287, 1.43179, -2.53302
-2.66408, -0.828964, 4.71727
-2.17093, 2.64299, -7.60709
-4.20694, -0.356045, -2.37917
-1.67839, -2.10211, 6.37802
-0.892073, -1.18576, -1.05491
-4.46202, 0.907515, -4.56362
-1.94356, 1.06663, 6.04813
0.980348, -3.13171, -2.46521
2.37768, -0.890183, 7.73051
1.58287, -1.5156, -1.99823
2.44234, 3.05013, -0.919513
9.71173, -6.00327, -6.65358
-2.51226, 0.521997, 7.88881
5.24102, 3.08924, 3.71773
1.2658, 1.14163, 5.21197
-3.3155, 0.691199, -1.08194
1.25277, -5.09989, 4.01353
0.0678476, -0.235999, 3.52085
4.66432, -2.49493, -7.44638
-0.469199, 3.53645, -2.48654
2.44429, 2.6767, 3.81378
0.95191, 0.983666, 4.32757
2.77629, 0.690247, -4.74089
0.289951, 4.53592, -6.88386
-1.38432, -0.421269, -2.7456
4.28306, 0.805957, 7.39314
0.551668, -0.0466223, -4.63443
-3.29256, -0.808285, -6.24272
6.65198, -1.31065, 5.75147
1.21799, -4.75681, 2.63068
-1.0223, -6.56662, -5.6129
1.70968, -1.37796, -1.12501
3.92457, 2.17983, 2.92497
2.87456, 0.136374, 1.48332
2.62017, 0.124203, 1.05579
-6.0577, 2.4152, 1.38395
-2.43221, -0.656422, 5.28665
-0.721224, 2.24953, -4.20797
-0.498861, -1.15328, -1.41379
0.441851, -0.0020091, -1.12971
1.41055, 3.10151, -2.84805
0.383984, -0.991716, -3.28288
-0.460942, -0.946179, -1.85815
0.577935, 0.416304, -9.52394
-2.13835, -2.15111, 5.38178
0.649073, -1.92945, -4.32134
-0.207492, 0.943057, -2.12004
-0.629603, -1.94524, 1.69161
0.684846, 2.21141, -3.77373
2.53996, 0.197465, -3.12936
2.49911, 1.15547, 4.76478
0.869644, 0.780818, -4.24803
0.377769, 0.440438, -2.76811
-2.16359, -1.46372, -4.89077
-2.94051, -0.253958, -4.41521
2.91442, -4.03735, 3.73731
-0.734407, 2.20893, -5.33867
-1.73968, -2.02712, -0.72442
-0.80271, -0.548698, -2.57559
-1.50115, 0.728933, 4.14518
0.367125, -0.744865, -1.69033
-3.34128, 0.479645, 4.42593
-1.74458, 1.38197, 3.91095
-2.64571, 4.47656, -2.56497
-0.876789, 1.27342, 1.92402
0.492272, -2.06296, 2.33807
-0.195501, -0.514637, 4.09843
-0.0724223, 1.48785, -1.09987
0.61698, 1.65784, 4.75393
4.20118, -3.3867, 3.68821
1.02154, 1.30435, -2.93473
0.0979846, -2.05982, -5.21303
-0.412284, -1.53311, -1.67371
-0.822698, -0.269429, -2.67527
-0.693494, -0.312402, 7.84179
1.67355, -1.15369, -6.38169
-5.60012, 0.754555, -6.09998
1.49885, -4.06319, 2.46281
1.92181, 3.54933, 3.84537
-5.82717, -0.645439, 1.7364
-1.92206, 2.28495, 2.49938
-3.86377, 1.33012, 4.9163
-4.49862, -0.130633, 8.14248
-1.57708, 3.76203, 3.73344
-2.0956, -3.4242, 5.82429
2.01526, -0.244625, -3.61732
-0.662489, -2.63572, -5.66495
3.91157, -0.745743, -3.58984
-2.84425, -0.293758, -4.18139
0.741543, 3.35678, -1.43783
-1.59834, 1.48486, -7.11374
0.91041, -0.100066, 2.89813
-1.47093, -1.43675, -2.09277
1.66176, 1.32886, -2.14766
0.671, -0.913454, -3.6033
2.50824, -2.09211, 2.26387
-0.284999, -4.81286, -3.89195
-2.34139, -2.70183, 1.64003
0.809816, 0.119844, 1.66276
-1.01492, -0.609314, 6.13234
-0.153469, 0.149442, -3.23847
1.50717, 2.56648, -3.33505
-3.6084, -3.13614, 2.02471
0.702254, -5.32447, -2.26025
-2.06537, 3.80971, -2.89699
-1.6731, 1.81819, -2.93352
5.78674, -0.302778, 3.13754
-2.44827, 0.0798822, -2.38166
-0.107055, -0.48595, 4.24617
-2.15651, 0.779273, -7.3906
-2.29636, 0.14942, 1.6712
0.806055, -5.47704, 4.51284
3.65153, -1.73871, 2.32237
0.0659276, 1.06434, -5.56522
-3.51226, -0.336875, -1.5981
-3.41833, 0.154763, 2.29933
1.48132, -1.29847, -4.04114
-6.185, -1.20212, -5.11215
0.389919, 0.233677, 3.00315
-1.36554, -2.93276, 4.20417
9.10902, -7.20937, -4.22657
-1.61545, 1.95297, -8.40127
-0.578489, -0.364777, 3.42629
-1.46655, 0.160918, 4.45893
-1.98297, -9.01519, -5.04401
0.448046, -0.518901, 1.96653
0.230325, -5.59074, 1.44738
3.54297, 1.25295, -2.70765
-0.299995, -2.23396, -2.06871
2.33487, -7.95296, 2.95951
0.637276, 1.01796, 1.25055
-1.92186, 1.78172, -1.67302
-3.38601, 2.23118, 8.52284
0.77714, 0.491601, -4.67634
-2.92135, 3.33017, -4.24225
-3.37332, 1.09722, 3.04785
0.734609, 3.83571, 4.32752
1.72193, 1.55309, 5.69683
0.212477, -4.5289, -2.58736
2.9107, 0.487688, 3.08083
0.899509, -0.705405, -3.25511
-4.38236, 3.86567, -2.35835
-0.621392, -0.664983, 0.866653
-2.16633, 2.4924, 3.93577
2.16411, -0.172274, -2.1866
0.564272, -2.04557, 2.94438
-2.3388, -5.23077, 4.14673
-3.06577, 0.1702, -3.18917
2.89807, -0.0871749, 5.28365
-3.31786, 1.04526, -2.75957
-0.90801, -6.70775, 10.6495
-2.17902, 2.08496, -3.21285
2.74512, -2.49237, 4.61541
2.97673, 1.70064, -3.23454
-1.97421, -4.7495, 8.89013
2.76666, -5.48627, -5.33032
-1.54215, -1.57826, -3.77337
-4.18219, -5.26653, 3.12437
2.01285, -2.05304, -4.95728
0.842327, 2.3422, 5.14852
-0.683949, -1.12317, 3.08997
-0.782377, -1.20666, -4.78068
1.15066, -2.02863, 3.97337
-0.15597, -1.24719, 1.63327
2.03324, 1.59783, 3.36453
0.125854, 4.85904, -2.06359
-0.241875, 2.99052, 3.88573
2.14292, 0.840782, 2.17706
1.02828, -1.08375, -2.85792
0.957477, -0.0715736, 2.87126
-0.234567, 1.58793, -0.943248
-0.53508, -0.238134, -3.42172
-0.999374, -3.66954, -7.51278
3.79915, -1.47247, -7.87753
-0.395198, 2.21498, 8.17107
-0.55266, 0.697491, 3.79962
3.18657, 0.628198, -4.65546
1.02321, -0.981459, -3.14287
0.59796, 0.778632, -2.55263
0.393586, -1.79746, -2.92381
4.44195, 0.681192, -5.74597
0.0915027, 0.400859, -0.918606
-2.13801, -1.54639, 4.93213
-0.206696, -0.974133, -3.71379
6.88188, -0.268104, 8.05892
-1.04324, 4.81034, 8.82986
1.43479, -0.244262, -3.64111
-0.825724, 0.221943, -2.18807
0.247428, 0.240729, 0.919473
0.509589, -0.937399, -3.56234
-0.836124, 0.0968675, -1.8159
-1.24861, -1.71698, -2.68454
1.67446, 0.720544, 4.52202
0.767819, -0.0084731, -1.94984
-0.739124, -0.421051, -2.75104
0.295421, -1.26891, 4.45707
0.90153, 3.32038, 2.50665
-0.0683773, 0.81104, -7.6876
-2.95849, -0.455137, 4.00044
-0.969966, 0.62129, 1.21625
1.76239, -1.78952, -1.71043
-1.45357, 3.22165, -1.57922
-0.756134, 1.66083, -6.99394
0.822708, -4.71758, 6.52971
7.40394, 2.27318, -4.34699
-1.56716, -0.17248, -2.90615
1.59548, 1.07288, 2.66057
-0.505396, 0.416096, -1.70726
-1.76179, -0.230766, -3.46038
-1.04315, -0.87631, -3.19686
1.30687, -0.281737, 3.199
-1.39833, 4.67761, -7.4901
-0.760323, 2.1816, -3.93778
-3.35147, -3.3581, -4.96859
0.242869, 3.31878, -5.53638
-2.87865, -1.08245, -5.51187
-3.5979, 3.76181, 3.77376
-0.144516, -0.390693, -3.56644
-0.0584532, -1.16154, -3.9187
0.0310981, 0.892816, -1.94275
1.1086, 2.12182, 3.75159
2.28332, -1.50479, -4.7641
-0.0710428, -2.28846, -1.92436
2.32392, -1.05436, -4.51686
5.39154, 3.60103, 3.43012
0.493383, 1.28227, -5.68849
-0.776843, -0.447585, 1.49967
2.02681, -2.50046, -2.77337
0.732014, 0.424991, -3.93445
-1.59017, -0.227485, -2.1475
1.28248, -0.215555, -2.24198
-0.207117, -1.52385, -0.804608
2.1373, -1.35641, 2.23832
2.89722, -0.800813, 5.59299
-1.55905, 0.162927, 5.80247
0.33669, -2.77745, -6.6704
-0.0780158, -0.714135, -2.52977
1.15475, 2.0446, -5.57225
-5.14167, -0.842317, -4.25116
-0.16548, -0.751796, -1.3906
0.305458, -1.62893, 5.85433
-2.71269, 1.79279, 4.71603
1.37477, -6.98962, 3.75615
1.35674, -0.287061, 8.50647
-1.56464, 0.972441, -5.36486
0.398008, -0.0733876, 3.34725
-4.6212, 2.79011, 8.10229
-0.692837, 1.46556, 1.46485
0.142893, -3.03728, -3.42899
-1.93083, -1.93974, 0.630398
-1.45881, -0.62834, 5.21095
-1.17608, 5.94905, -9.05428
4.94698, -1.3517, -4.83033
-8.04386, 1.84394, -2.75707
0.816302, -5.42551, 7.4078
0.229168, -1.42526, -3.34027
-8.70393, -0.17739, 4.96566
0.691668, 2.65307, 3.36281
-3.67602, -3.31071, 3.18229
-3.0212, -0.849118, 2.58336
3.63131, 1.44208, 2.23761
0.13076, -0.409671, 2.22268
2.42798, -0.689355, 2.20666
0.771892, -0.0355702, 1.66112
2.16338, -1.96379, -3.46785
0.707793, 2.62961, -3.99023
1.66063, 1.28073, 4.34289
-0.588099, -1.77333, -4.5262
-0.562983, 0.668024, -5.79683
1.61272, -1.72986, -2.08358
2.87449, 0.0368444, 6.55667
-0.687462, 1.13582, -4.28819
0.948102, -0.560055, 1.14018
2.72311, 0.030024, -8.2841
-2.476, 4.23957, 8.51218
-3.1559, -2.82197, -4.95681
-0.157121, 2.50401, 5.21497
0.339897, -0.449103, 3.25647
-3.54662, 2.0062, 8.05934
1.18088, 0.900084, 2.59606
2.62814, -0.169892, -0.333563
0.785675, 5.17579, -2.64829
-1.16662, 2.19761, -1.83714
-0.39805, -5.23881, 1.21315
2.72259, 2.56422, -3.03242
3.76141, 0.512564, -3.88186
1.45771, 0.839646, -3.65421
1.48641, 0.583263, 3.25569
2.77323, 0.735819, -2.13226
1.95945, 0.040446, 5.85534
1.0552, -0.545762, -2.26997
3.8523, 4.37054, 3.94068
1.47763, 1.76591, -2.44869
-0.336153, 2.05366, -3.69453
-0.950864, 2.40295, -3.2073
2.07631, -2.2758, 2.7291
4.74321, 4.41855, -3.99174
2.39195, -2.61807, -5.48255
3.11324, 6.21183, 6.98433
1.28405, 0.591002, 2.81875
-2.8887, 0.277917, -5.46502
0.700555, 0.00501794, 2.80618
0.73082, -1.89114, -6.59133
3.48887, 2.93981, 4.73939
-2.1959, -0.175329, 5.11677
-1.13477, -2.94934, 4.40007
-1.21011, -2.0805, -2.76715
3.57384, -1.28964, -4.17555
2.38868, -3.04598, -2.89364
-1.08022, 2.48641, -3.49995
-0.143974, 5.17914, 3.65607
-0.368032, -3.18315, -1.83201
-0.185674, -0.508897, 2.35116
0.601022, -0.528156, -4.11777
2.40065, 0.686534, -5.15931
-0.277646, 0.26446, -0.683451
-2.02458, 2.11197, -1.57018
5.199, -1.21484, -4.04048
1.45508, -0.379453, -1.51715
-1.54447, 0.361547, 3.11358
-1.37869, -0.244163, 2.18778
0.920804, -2.75093, -5.98085
-0.199575, 0.446506, 1.62175
-2.26555, 0.856841, 5.34911
-1.35111, -1.35221, 2.82292
1.46775, -0.170526, -4.45399
-1.20632, 0.324956, 3.7982
-5.38699, -0.899074, 1.82406
-8.53947, 3.6441, 9.03267
1.79882, 0.482011, 6.84966
3.14077, 0.687122, 1.78821
-4.44204, -0.620938, -3.31336
0.709831, -2.52226, -2.63826
-0.245917, -0.0816643, 2.90233
1.62716, -1.68486, 1.73672
0.923635, 0.97756, -1.778
0.179473, 1.07762, 2.86155
0.318427, -4.47195, -6.1008
-4.34038, 4.36624, 2.52227
0.959371, 1.52865, 2.85347
0.835529, -1.34736, 3.68478
1.57551, -0.924834, 1.63773
4.85684, -4.63068, 4.15062
-0.169298, -1.41891, -2.68912
-0.552528, 0.425362, -3.19709
-5.56804, 4.12763, 5.19332
1.63418, 0.67928, 2.72123
1.81777, 1.60802, -2.58872
0.915371, -0.772619, 2.86415
-0.175492, 2.06827, 5.94951
1.06945, 0.843285, 2.93537
6.24357, 0.0362158, -3.75752
2.36759, -0.444655, -4.68498
-0.551241, 0.568767, 1.63238
-2.51017, -0.146358, -11.6251
2.0626, 3.19364, -5.47039
1.68014, -0.540358, 7.02438
1.927, -1.20269, 4.80177
2.88959, -2.20681, 3.47691
-2.60662, 1.00046, 1.68901
-1.41057, -0.734027, -4.6216
0.0212059, 3.40044, 5.09717
-0.343278, 1.06655, -1.79424
0.925723, 1.11682, 0.790223
0.59404, 0.751258, -3.46612
-0.628879, -1.21559, -2.58126
1.75332, 1.21392, -2.88242
0.42938, 0.912333, 4.04104
-0.982578, -0.944356, -2.02889
2.33949, 2.77787, 2.36672
-3.75201, 2.77261, -5.44678
0.882354, -4.39254, 4.29795
2.72344, 3.72399, -3.69622
-5.972, 2.9944, -4.24138
-0.394441, -1.08639, -3.15014
-1.08051, 0.782181, 0.749037
-0.672872, -0.649798, -1.99567
1.19076, 1.78829, -3.47196
1.62847, 1.4229, 1.71844
-2.47631, -4.61306, 1.29392
2.26418, -1.7656, 5.485
0.941984, -1.54257, 2.2543
-0.240664, -1.63172, 4.14956
3.63689, -3.84151, -5.85826
-1.16318, 1.64176, 4.59001
-4.29132, -1.47514, -7.53949
-1.6573, 0.743952, 8.71531
-3.23222, 5.85188, 3.0033
-1.95541, -2.65543, -1.95456
-0.809022, -1.65941, -1.96716
-1.56295, -1.43748, 6.22387
2.05316, -1.21727, -1.14306
2.76301, 2.12494, 3.7573
1.93729, 0.495215, -1.88232
-3.5581, 2.90329, -3.70247
-2.12215, -0.63778, -2.47844
0.646361, 2.59536, -2.61634
-3.28878, -1.23813, -5.31727
4.02666, 1.74387, 7.94244
4.90976, 3.62438, 0.634863
-1.56867, -1.26916, -1.00933
-0.169841, -1.42859, 2.72908
0.498313, 2.17327, -5.94458
-0.301596, -1.11589, -1.86123
-0.68272, -0.817121, -1.47854
1.5284, -1.07083, 5.77545
0.636862, 0.277361, 1.40558
-5.59564, 2.67134, 4.3779
1.17884, -1.28089, -1.13285
2.76273, 2.10918, 4.77538
-0.0892183, 0.374618, 6.49383
2.17911, -3.39251, -2.47307
-1.46789, 0.95006, 3.57423
0.361438, 0.0651809, -7.7661
0.972963, -0.447271, -4.57447
0.121254, -1.76017, -3.352
0.770632, -5.98157, 1.57432
-0.884433, -1.29289, 4.36239
-0.0392702, -0.924445, 6.23476
0.950925, 1.33178, -5.74477
-0.140437, -1.33624, -3.04128
1.29853, 0.00117276, 4.67296
1.95463, -2.07859, -1.48635
-0.941498, 0.590125, 1.72252
-2.16532, 1.53701, -2.58649
-0.0159632, -1.38949, 3.49417
0.106191, -8.13056, -4.83399
-0.730393, -2.24546, 8.99774
2.53649, 0.558381, -2.8141
-0.613235, 1.03056, -1.86921
1.57583, 2.22485, -3.54258
-1.75201, 1.47882, 4.21434
-1.80672, 2.17637, -6.47634
-2.58095, 0.440075, 8.70551
0.675537, 3.25335, -2.26046
-5.99056, 1.22172, -3.10626
7.15973, 2.03547, -8.36456
3.06346, 4.26358, -2.01441
-0.581251, -2.532, 3.46962
1.95969, -3.62263, 3.35097
-3.08695, 0.223193, 3.58977
4.30473, 0.180833, -1.53123
-1.37745, 1.21066, -3.21812
-5.2979, 3.04315, 5.79028
-0.10759, -0.588206, 4.58534
2.39754, -6.44583, -2.60241
2.59303, 5.35456, 2.01468
0.467927, 1.02997, -3.06914
-0.650635, 8.60556, 8.74996
0.445799, -0.791346, -6.05028
2.97186, -3.50888, 3.20346
3.79299, -2.65814, -1.93426
0.599778, -3.19191, -3.21756
-0.453212, -0.0852643, 4.28243
0.274949, -1.85224, -3.58116
1.3965, 1.61573, 1.45327
0.266164, -1.62281, -3.78621
-3.57652, -0.0303092, -1.80147
-0.883535, 2.0191, -3.97465
-0.328192, 0.0382864, -1.41996
2.40805, -3.13216, -5.53317
1.91374, 5.32132, 3.80753
0.31939, -4.78681, 1.74176
-1.6623, 4.95228, 4.6774
1.90898, -1.175, 6.32453
0.0755322, -1.1882, 2.86343
2.48939, 2.03153, 5.26344
-0.580738, -1.60651, -2.03973
-2.81243, 0.360936, -7.97921
3.00866, -2.08527, 1.66689
0.753288, 0.220165, 1.55572
-3.17709, 1.04012, -1.71191
0.287757, -1.82027, -3.19001
5.51514, -3.00419, 5.4639
-0.781082, 0.713442, -6.03402
-0.930074, -1.56604, -2.60991
1.56832, -2.30101, -2.50891
-0.931658, -0.54909, 2.83111
1.68727, -2.5568, -9.49996
1.7835, 1.92341, 1.40401
-0.318807, -1.02869, 1.15584
-0.257688, -4.92303, -5.50162
-1.30311, 2.07174, -4.03544
2.21559, 0.920561, -6.52654
2.31498, -0.932213, 4.44451
0.918382, -2.41351, 3.51588
-0.906189, 3.06593, 2.46297
-1.03105, 6.06489, 2.38309
2.71547, 1.76207, -6.44727
-1.05387, -0.433184, 2.30339
-1.09569, 5.0644, -2.74734
0.778437, -6.21987, 9.96944
4.51378, -0.229765, 2.42528
-0.061919, -3.74798, 1.42407
-2.59724, -0.238079, -4.49622
-1.25367, -1.89009, -1.76875
0.0974872, 1.16436, -3.42211
1.26287, 8.57522, -4.0315
-6.21485, -6.13276, -8.60552
3.40457, 5.04482, -7.92001
-0.43576, 1.25373, 4.21696
-3.11302, 2.01198, -9.90625
1.89651, 0.779555, 2.12355
0.24845, 4.0962, 2.60765
-0.304251, 3.08078, 4.32561
1.60183, -1.31714, 1.26654
2.90427, -3.38083, 4.11804
2.47589, -2.28792, 5.01195
3.41695, 4.0798, 3.91609
6.00042, 0.496571, 5.96973
-0.936115, 1.1885, -3.19128
-0.487901, -0.225413, 3.71074
-3.03296, -0.175575, 3.95488
-2.5868, -0.345681, -3.25659
0.426524, -2.73523, -4.55284
1.25497, -1.8784, -4.51002
2.32337, 4.77004, -3.56432
-2.59744, -3.67753, -4.29409
0.0384979, 1.72988, 4.15473
0.450127, 0.519949, 1.97797
1.44261, 3.06581, -4.69433
-1.04941, -2.82011, 1.84262
-1.14181, -4.15971, -5.48728
1.83675, 5.07795, 8.34427
-0.179385, 2.71717, 3.65404
-5.22636, -0.637845, -0.352634
-2.04272, -2.55265, 6.03877
0.878767, -3.2849, 1.53004
-0.184882, 2.90067, -1.68417
1.55601, 4.20502, 4.35104
3.517, 0.00113914, 4.45777
2.30223, -1.18685, -3.72041
4.61934, 1.22523, 2.03354
-3.2832, 1.82584, 5.16666
-0.982804, -0.440277, -8.17531
6.54351, -5.27714, 4.23774
0.0763635, -1.25051, 7.32222
1.14332, 4.88104, -4.50158
3.51772, -3.62825, 3.68819
-1.96219, 1.2585, -3.19216
-0.583656, 5.09669, -4.15654
-3.14476, 4.87397, 4.82504
0.167445, 0.928234, -6.03274
-2.16133, -1.82937, -2.02412
-1.01683, 1.53919, 0.247494
-0.603995, 1.27105, -1.88689
-0.427248, 0.375661, -5.08219
-0.565744, -1.00619, -5.10929
-0.0756659, -0.760138, -6.23812
0.465868, 0.630729, -2.88824
-0.216692, 2.03433, -12.0074
-0.25293, -0.665013, -5.31242
2.56822, -0.468231, 4.74837
2.96522, 0.0632899, -4.29396
1.61613, 3.92709, 3.30666
-0.303084, -0.107313, -1.82496
0.288315, -1.24532, 4.2482
5.95641, -1.45448, 5.51655
5.73753, -4.15664, -7.06004
-3.94753, 1.43626, -5.83383
-0.939416, 1.07128, -3.83883
1.20907, 2.24883, 2.45592
-0.199343, -2.63313, 4.68357
1.12871, 1.55404, 6.34257
0.975268, -0.334184, 3.17802
-5.26852, -0.230071, 2.39702
-2.69408, -1.61992, -4.20675
-3.35431, -1.91983, 10.0555
-0.740485, -3.88125, 3.11996
-2.13806, 0.103636, -1.76815
-2.23615, 1.4049, 2.45629
0.561908, 1.65143, -10.0464
-2.42071, -7.03694, -5.91944
-0.967688, -0.763133, 3.32555
2.16101, -2.13917, 2.53812
2.09904, 0.0784188, 1.43281
-1.03559, -2.00441, 6.21367
2.84384, 2.24918, 1.44943
0.105102, 2.17433, 1.41278
0.381155, 0.213621, 2.59168
-2.60215, 1.60802, -2.98696
0.457591, -1.39234, -3.8257
1.92434, 0.654665, -4.99111
1.12975, 2.73955, -2.49615
-0.647197, -0.193981, -5.23418
-1.1019, -1.23153, -4.93376
-1.53741, 0.415667, -2.5599
-3.72459, -0.209213, 7.33334
4.20152, -2.33945, 6.41133
-4.2692, 2.79008, 6.29264
2.63022, -5.52995, -7.1665
1.31759, 2.02633, 2.98758
0.760373, -0.724722, -4.13692
2.29898, -3.42379, -1.57546
1.08727, -1.22184, -2.51326
2.03731, 0.824295, -6.89053
0.682252, 5.83701, 2.42421
3.14619, 1.35658, 3.131
1.81572, 0.664808, -5.64148
0.0703856, 1.22625, -5.06908
1.40003, 0.32455, -2.86852
0.562094, -5.16826, 7.83881
3.44172, -3.52671, 4.57951
1.44492, 2.92927, 6.49003
1.20857, -1.5829, -1.82164
1.01952, -0.302287, 3.14263
-1.75771, -1.08462, 8.35417
-7.86878, 0.435446, -5.62651
-9.05538, 3.01524, 4.68331
-3.46981, -2.34443, -2.7852
0.923189, -1.78585, -2.40191
-0.117899, -0.366485, 7.20441
-2.01101, -0.875243, -4.96474
-0.0250954, 1.59335, 2.1
1.69047, 2.96407, 3.70689
5.6824, 1.11054, -2.9776
-0.276308, -4.85377, -2.71936
0.789931, -1.28864, -3.01317
8.25119, 0.178613, -2.43103
0.302392, 0.256078, -2.03126
2.85668, 0.346861, -2.24763
-2.46531, -0.918162, -9.67468
2.27547, 3.9159, 4.69755
-0.615514, -2.84358, -5.57087
8.5806, -6.89504, -4.63517
-2.4605, -0.382974, 1.78696
-3.58542, -1.70721, -4.44564
2.56902, 3.83733, -3.4374
0.525906, -0.645501, -4.31652
-0.411089, 2.84516, 2.55734
2.08096, -1.17639, 2.2899
-0.540333, -1.99894, 0.829068
1.07031, 0.871255, 2.7568
-2.12832, -0.536265, -7.047
2.10727, 0.120365, -4.79999
0.482935, -2.28679, 4.9167
0.35164, -1.85902, -4.98489
2.92952, 0.594152, -6.03538
4.80923, 2.70993, -2.49679
1.76985, 1.11457, -4.04696
4.53171, 0.0516424, -6.16515
-1.37369, 0.798924, 1.67176
4.13458, -1.51418, -6.53069
-1.71727, -1.76983, 2.79863
3.07653, 0.0668286, 4.52236
-0.449031, 0.494865, 3.16193
-0.515128, -2.80794, -3.096
-1.85823, 11.3566, 7.78618
1.65018, 1.7272, 1.41901
0.0232728, -0.127001, -3.42333
-3.35038, 4.48362, 6.19804
-2.76189, -1.40004, 2.88979
0.134407, 1.37174, -3.94047
0.982489, -1.30356, -2.44531
0.721787, 3.74119, -5.49676
0.186788, -1.14626, -3.93085
-0.533368, -0.123754, 2.67322
4.41133, 0.281762, 2.97707
-1.61106, 0.620897, 2.64347
2.68599, -1.21957, 1.20129
3.03822, 0.459672, 1.65934
-0.618542, -1.1037, 3.47247
2.45533, -0.911175, 4.48405
0.733088, -2.18594, -1.79247
-2.62715, -0.0594069, -3.05391
0.432619, -0.560687, 1.11268
-0.482498, 1.31581, 2.40262
0.102247, -2.79646, -2.13539
0.0584825, 0.0485444, 2.46862
0.174167, 5.5305, -2.30998
1.72946, -1.19308, -4.81558
-0.112193, -2.07881, 1.70558
0.322957, 0.914342, 2.39057
4.8656, -5.81036, 3.23257
-1.33366, 0.416773, 2.9249
1.00079, 1.27967, -4.53589
0.0019738, -0.410251, 3.35912
1.39811, -4.31927, 3.61475
1.55297, 1.70584, 4.32053
-2.00213, 4.01403, -5.32788
-2.16909, -0.726363, 2.67397
1.30278, 2.38821, 4.04844
2.13269, 4.21561, 2.9638
1.34699, -3.54754, 2.42759
-0.952972, 4.50692, 1.74139
1.80694, 1.09895, -5.03398
1.79441, -2.06639, 4.02287
4.04726, 7.8039, 3.55859
-2.37901, 3.72141, -1.03656
-1.43685, -0.98826, 2.8117
0.528193, 2.3398, 4.58421
-1.48208, 3.26784, -2.8495
0.360028, -0.145803, -2.7091
-0.432245, 1.13047, 6.56633
-1.88439, -1.84317, -0.931354
-0.616107, 0.49113, 4.49495
1.04201, -0.505595, -5.77338
0.0606117, 2.39923, -2.3008
-0.336097, 0.0352454, 4.79166
-5.73488, 3.95184, 3.16546
0.364149, 1.86952, 2.92053
4.74366, 0.63093, 3.94653
1.28733, -5.71381, 3.03041
1.21686, 2.45848, -4.35155
2.42621, 0.305493, -1.77334
1.7379, -0.398038, 2.53217
-0.0265125, -1.93147, 3.336
-0.777003, -3.46756, 2.35343
-1.28949, -0.125928, -2.23112
1.2034, -1.36934, 1.58547
-0.0137699, -0.0898156, 1.80637
-1.28984, -1.43114, -2.51229
-8.03899, -0.773873, 3.274
3.45877, -3.65346, 2.55043
-0.0928098, -0.200314, 0.793923
-2.63014, 3.29858, 8.42202
1.72107, 0.199058, -3.50831
-2.56703, 5.31416, 5.44177
-2.24098, -3.9424, 8.01415
-4.0221, 0.834608, 5.57486
3.01044, -3.04175, -6.30958
1.23919, -0.869921, -2.47883
7.74703, 1.43868, 3.82817
-3.36547, -1.83731, -2.32033
2.91153, -0.845789, 4.36176
-0.683133, 1.90522, -2.22673
6.8703, -3.1648, -4.33159
-1.27876, 2.0864, 1.57929
-0.62819, -2.27058, -4.49398
-1.21589, -0.689536, -1.45877
1.04693, -0.503924, 4.68474
2.21814, 1.93923, -3.14244
-2.01811, 0.316628, 5.23777
-0.362083, -1.17505, -3.42571
-0.644778, 0.609663, 5.26718
0.208277, -2.57948, -2.07973
-2.09262, -3.39089, -1.06711
2.84254, -0.354455, -4.10819
-4.32001, -1.44328, -5.48938
0.261165, 0.268708, -1.7473
0.881449, 0.791529, 1.81079
6.07418, 1.34355, -2.13248
-5.18737, -4.77123, -5.68949
0.334834, -1.4998, 8.98918
-0.941047, -2.01205, 1.58959
-6.08922, 3.73173, 6.81911
0.399838, 1.78737, 2.84192
-0.541129, 0.86442, -3.5904
-2.04463, -0.52041, 0.883862
3.449, 5.45053, -3.75715
-3.59024, -3.1112, -3.43886
8.5969, -6.96963, 3.63221
-1.9264, 0.397141, 6.48514
-4.41774, 0.243595, 5.05824
0.583267, -0.220383, 1.83299
-5.11612, 1.20964, 2.79654
-3.59381, 4.35333, -2.54325
2.67094, -2.46483, 3.644
-3.24247, -1.22403, 7.63746
-2.36629, -1.25593, 3.67895
1.25673, 5.54158, 2.98769
4.66283, -3.50939, -1.30854
-1.01727, -2.77807, -4.96781
-0.00494902, -0.855747, -3.10637
-0.895377, -0.11728, 1.81827
4.51285, 6.02073, -6.40275
-0.0902575, 0.634711, 1.73839
-0.523226, 3.96021, 5.03869
3.82637, 1.92142, -4.44151
2.29084, 2.56028, -3.43658
-0.542612, 1.71261, -1.94379
0.959367, -0.025508, 7.18001
-0.970067, 1.63142, -1.88591
-3.63734, 5.51873, 9.1007
0.113356, -0.60184, -6.43858
0.135652, -1.55569, -3.38119
4.44491, -0.0630442, -2.51129
5.03873, -1.75309, -7.74328
5.09392, -4.08341, 4.56183
-3.51127, -0.329276, 6.02122
-1.0659, -4.5339, -3.12419
0.75645, 3.09753, 6.04447
7.24314, -1.06027, -7.85773
-2.11189, -0.68354, 2.16432
9.39682, -6.82172, -5.90799
0.85331, -2.15099, 0.7722
-0.932567, -1.50197, 2.11822
-3.57623, 1.053, 2.44539
-1.34979, 4.95475, 4.23842
-0.776517, 0.101796, -2.89403
-2.07972, -3.2868, -7.71994
-0.197248, 0.106756, 1.23077
2.37683, 4.25423, 6.78028
1.66385, 1.73404, 4.04945
3.42296, -1.19619, 5.51607
-0.177481, -2.74883, -1.40098
5.51618, 0.391737, -5.7411
0.974796, 1.41779, 4.50358
-3.96232, 5.60473, 4.69287
2.58111, -0.559723, 0.677561
2.45747, 0.569295, -4.76357
-2.39941, 2.35065, -2.99966
-1.06695, 2.40246, 1.24023
3.36945, -1.04024, -3.76789
-0.133712, 0.582477, -1.8874
-5.91747, 1.52036, 2.7769
-4.48155, -5.47895, -5.44156
4.39349, -1.85933, -4.42156
-0.784643, 2.19242, 3.99906
2.71663, 3.62023, -4.15087
1.15271, 1.40352, -0.687523
-0.970009, -1.48303, -0.390356
-1.06018, 1.45649, -5.56854
1.72687, -0.503096, -0.643022
-2.48588, -0.381477, 4.96513
-1.56393, 0.887285, -1.46091
3.1247, 3.94534, 4.57246
0.249541, -0.837922, 4.59175
-1.33083, -0.231414, 2.38651
-0.446655, 2.10829, 3.50878
-0.880553, -1.94578, -2.80719
1.22627, -1.52778, 4.23817
4.89261, 3.87122, -6.6948
-0.809862, -4.13075, -2.36279
8.75961, -2.46187, -5.1215
-2.56505, -4.67332, -2.58611
1.82259, 3.09393, -1.49722
-0.25921, -2.49325, 1.31073
-1.61555, -1.54894, 2.23217
-1.54133, -0.139811, 3.22457
1.07888, -3.3881, 1.59582
0.749991, -0.914508, -2.21189
1.13678, 0.194744, -2.96372
5.22997, -0.122927, 7.66575
-0.153085, 1.31833, 6.90073
2.25132, 1.54418, 2.33905
1.36007, 1.23458, 3.50918
4.64615, -3.87994, 5.9655
-3.54539, 0.38493, -8.57072
0.208502, -0.221213, -1.5424
0.757044, 2.68098, -3.71594
-0.28272, -0.629024, -0.419326
1.79577, 3.22332, 1.64235
-3.55746, -0.232077, 0.955184
-1.84311, 0.241908, 3.75938
0.168093, 0.29647, 2.2647
-0.360972, 0.0979385, -0.82108
-2.34358, -0.925349, -1.32189
-1.84743, 4.70012, -4.70798
-1.33227, 0.542093, 0.265335
-0.630038, 1.35645, 2.26801
-4.54919, 3.22135, -2.74327
3.89727, -0.51622, -3.93406
-0.0551842, 2.27935, 0.943078
-0.268275, 0.37911, 1.34461
-3.47031, -0.69459, 4.63671
-0.926101, -0.953047, -4.89031
0.702427, 0.154735, 4.8819
-0.50106, 0.819892, 1.09485
-1.75413, -1.42468, 2.11961
-0.360552, 1.93025, -1.71415
-0.342845, -1.69856, 3.3355
-2.81843, -3.83462, -6.68622
2.57518, -3.60587, -7.23534
0.437654, -1.03415, -2.92369
1.26188, -2.67482, -0.551482
2.35479, -0.789862, 6.19359
-3.73643, 0.540031, 8.98519
1.60448, 0.207028, 1.29587
-0.935176, 6.70301, 2.81562
-0.814014, -1.99528, 4.22188
0.565356, -0.913858, 2.08158
-1.00755, 4.22713, -7.3254
-3.17927, 1.43798, -3.99539
-1.9353, 1.13687, -3.10012
4.02699, 3.15899, -4.22011
0.885635, 2.11054, -2.3742
-4.76182, 1.51161, 2.31958
0.711247, -3.59255, 5.77887
2.08651, -2.16979, 2.79806
2.60995, 5.43467, 8.11248
2.1615, -1.35907, 4.25023
2.72422, -2.3238, 3.50629
0.0603878, -0.289839, 1.56675
2.76977, -3.55392, -5.12119
2.68874, 0.51391, -2.3517
3.66981, -1.13197, -6.13461
1.07232, 1.70324, 1.44504
-0.382427, 0.629729, -4.65452
-3.52303, -0.847361, -3.24757
1.14757, -1.66402, 3.69336
-5.30197, 2.10104, -2.0742
-0.725456, 0.161911, -1.58721
-1.14514, -1.72218, -1.53927
-2.81762, -1.74968, -7.26642
1.72733, 0.304139, -3.35695
-0.288336, 0.340978, -1.903
0.402349, -3.65051, 1.61461
-1.00816, -6.51511, -3.57387
1.47694, -4.34803, -0.642133
-0.513784, 1.64509, 2.68464
4.29474, 0.541697, -1.18219
2.48661, -0.449431, -2.05553
0.617938, -2.96911, 3.17313
0.630516, 0.0329485, 5.54889
-1.85633, 3.92848, -1.41031
1.27229, -0.0934936, -3.00343
0.234415, -0.999975, 3.7872
-0.643757, 1.96557, 7.2753
-3.00975, 0.409717, 4.93386
-2.79683, 1.18518, 3.24024
3.03368, -3.31031, -11.2276
1.17328, -2.14238, 6.803
5.47623, 1.94662, -7.37507
1.4004, 1.69579, 2.51772
0.816607, -0.308158, 1.94784
-2.39491, 0.395234, 6.43727
-5.82841, -1.94858, -4.67755
-0.782458, 0.584753, -5.62046
-0.65122, 1.0753, -3.95064
-0.494174, -1.32857, 2.05922
