4.19296, -0.899905, -4.80371
-1.58092, 6.19529, 4.49887
-0.869354, 3.39596, 4.46803
0.851541, 1.44328, 2.11649
4.55586, -2.684, -3.59752
1.11333, -3.00619, -2.34
-6.49419, 1.2964, -7.96096
1.53264, 0.897474, -2.61474
-4.5173, -2.18097, 6.17343
-2.65422, 0.237751, 3.78667
-0.62238, 3.73518, 2.84905
-1.00849, 2.97985, 4.10288
2.77319, -6.05413, 1.88226
3.59101, 3.48468, 5.23346
-0.40025, -1.45141, 3.01531
1.36488, -1.9531, 2.12956
-1.76802, -1.60351, -5.5641
0.852198, -3.14382, 1.52672
7.67071, -1.96239, 2.82087
0.864316, -1.09258, 4.09577
-6.19624, 0.39983, 4.83522
2.00643, 0.22884, 3.40106
-0.297044, -0.266749, 4.35998
2.09464, -0.864224, -3.18933
-2.76403, 0.846672, 2.61331
-2.4677, -1.3996, 4.5506
-2.04678, 2.12602, 1.3765
2.86966, -1.35579, 2.85241
-0.613676, 2.04271, 5.57385
-9.24819, 0.30068, 4.27397
-1.03595, -2.90245, -1.4271
4.83218, -1.28835, -4.56124
2.90693, 2.87494, 7.65657
-0.0458869, -1.1067, 4.30399
1.96581, -1.76953, -3.58487
4.45481, -2.22338, -5.34005
-1.93887, -0.478996, -0.952862
3.01251, -1.79736, 5.05328
-0.596942, 1.42488, 1.82083
1.06513, -0.369252, 1.60785
0.321054, 3.58339, 6.55898
1.41416, -3.51007, 3.60427
-0.626042, -1.06607, 2.15384
0.802096, 3.73029, 4.02659
0.602748, 1.49321, 5.1873
-1.51361, -0.550655, 5.09373
0.560353, -3.83577, 5.67767
0.166315, -1.47041, 1.13874
1.5424, -4.68721, -5.6315
2.23988, -3.16398, -8.72203
5.02836, -6.1638, -7.41729
-0.346553, 3.22986, -2.79963
8.02598, 3.82091, -2.48707
0.96137, 0.529141, 4.03336
-1.15328, 2.39347, 4.62756
-5.94326, -2.89486, 3.02371
1.20085, 1.83384, -0.785095
3.18152, -1.98114, -4.84918
3.14336, -1.7132, -4.28802
1.585, 0.57425, 1.80592
7.19255, -0.493903, 4.80665
2.61144, -0.798498, 3.22621
-1.40208, 0.481577, 3.42804
3.02361, -0.217394, 4.92146
1.32349, 0.510995, 2.4162
-1.91871, -0.815342, -3.98712
-1.71741, -7.30266, 7.59561
-1.24128, -2.60709, 3.776
0.0546066, 1.98504, 3.78815
-1.56562, -1.19424, 5.54457
2.68883, 2.604, -3.4561
-0.484354, 2.27812, 3.17298
1.85813, -1.55057, 1.72239
0.962465, 3.18138, 2.11765
-0.152085, -2.05688, 2.49618
-2.6205, -3.16588, -6.27766
3.33285, 0.961797, -2.89223
0.408193, -5.31777, 2.83072
-0.238001, 1.54462, -6.88314
-6.21198, -0.508622, -11.5174
-1.61637, 3.00495, -3.61004
2.64599, 1.05565, 1.1551
2.81573, 1.95714, -1.12754
-1.41767, -0.163499, -2.69137
0.914997, -0.743372, -1.61285
0.369234, 0.110258, -2.6063
-0.406334, 0.939665, -6.2271
0.80855, -0.82456, -5.50943
-2.71042, -0.231522, 4.15096
4.23038, 0.808258, -9.08449
5.24152, 2.86612, -0.833539
0.725774, -0.772329, -1.58661
-3.43286, -3.97993, -4.16848
0.344681, 1.60038, -1.8598
2.53743, 0.106604, 5.23265
1.22998, 4.34431, 6.07314
-0.418207, -3.59925, -1.00688
1.71419, -5.28953, 4.65662
-0.768168, -5.29316, 1.34855
-2.32009, -1.40524, 2.46616
2.17683, 1.68882, -4.33471
-0.622179, -1.57457, 2.40147
2.01826, -0.440844, -2.26081
-0.927725, -0.954233, 1.76722
-2.16613, 0.497176, 2.24102
2.54441, -0.640625, -2.0488
-2.21226, 1.28668, 4.32365
0.462616, 0.455777, 6.73748
3.24055, 4.08892, 5.57416
0.180888, 2.21981, 2.40446
-4.24902, 1.28751, 2.66248
-1.52911, -1.20268, 1.79511
0.434156, 1.38715, 3.04248
-1.74838, 0.21193, 3.53818
-2.98713, -0.543074, -1.09575
-0.300111, 0.336179, -2.91318
-0.361537, -0.509035, -1.20884
2.51159, -5.43168, -2.3822
2.17423, -1.20278, -1.82345
0.942322, 2.18439, 5.10976
0.927656, -2.39349, 1.56774
-3.9848, 0.152943, 4.65448
-0.711934, -0.0830249, 1.13119
-1.78079, 0.288399, -4.07946
-5.97011, 2.31511, 2.96884
-1.5591, 3.26064, -5.21227
8.22045, 3.51856, 1.92038
-3.95125, -2.13445, 1.52973
1.90506, -1.92548, -2.87074
0.417833, -2.24751, 2.10097
-3.81791, 3.30158, -5.85201
3.07152, 2.11505, -3.37469
-5.21957, -1.59821, 4.81164
-3.68911, 2.51107, 6.20237
3.48381, 1.2549, 11.1795
0.0508885, -0.632531, 1.13182
-1.33157, -3.33652, 6.51109
1.64187, -0.305607, 2.72633
-0.42729, -0.70789, 1.29357
0.779123, -1.62706, 4.19628
-2.49198, 3.97018, 7.46016
0.303442, -1.10465, 2.1036
-1.29602, -3.3833, 3.46847
1.35259, -0.0427361, 3.48673
-2.42805, -0.7609, 2.78145
-1.29575, 1.91951, -4.79668
-0.943858, 0.461272, -7.50582
3.31797, 1.17568, -1.54943
0.0865824, -0.74882, -2.71592
4.51759, -1.83396, 2.05425
2.37659, 2.34167, 4.58077
-0.403259, -1.04652, -2.01773
0.219235, 0.182107, -6.20928
-0.26962, 0.249802, -3.16427
-1.54838, -1.43818, -3.01133
-1.11033, -1.62257, -2.94517
2.03267, -0.811921, -2.33199
-0.519422, -0.501115, 4.76972
3.7163, -2.42428, 6.15443
0.362196, 1.42487, 2.04038
-1.08984, 0.158106, -0.891213
4.2559, -0.146889, 4.30582
3.38157, -2.74822, 2.25117
-2.31333, -2.94139, 5.29324
-0.554942, -0.335466, -3.23241
-2.95195, -0.913441, 1.60778
-3.38392, -0.157912, 3.2733
-2.10769, -1.45132, 4.16707
-2.95303, 1.16474, 2.77513
1.51278, -0.970905, 2.47846
-2.95092, 0.573276, -6.71971
0.829116, -2.82207, -8.03149
1.94211, -1.48645, -4.08478
-2.01181, 0.338428, -2.51036
-0.732248, -1.86146, -2.36727
-3.30169, 2.78214, -3.67479
-1.70512, 2.64823, 1.54002
10.9747, 4.23801, 6.68986
0.35684, 3.93931, 4.55866
-1.12422, -1.17175, 3.09977
1.3042, -0.147214, 1.75031
0.963548, -6.13066, 6.30179
0.992131, -2.26379, -4.19547
-2.10978, 1.93412, -2.55866
-0.513152, -0.628999, -2.87735
0.0643737, 2.48639, -4.01515
-0.493399, 0.547851, 0.315504
1.83226, -2.05174, -0.465022
4.88557, -6.35349, 5.06243
3.15759, 1.16988, 3.88662
-0.836077, 0.638544, 2.40645
-0.559357, -0.567781, -3.26422
-1.93335, 1.38463, 3.08646
7.47318, 2.13282, 1.9773
3.64409, 0.555042, 2.87142
1.57619, 1.83966, -2.62876
-2.63134, -1.52558, -4.37112
-0.159615, -0.771241, 3.10075
5.24298, 0.822312, 5.01349
-1.24583, -0.60162, 2.17565
-0.137461, -0.751498, -2.15328
-0.209481, 2.04673, -9.73475
-1.24794, 0.426103, -4.4898
-1.58397, 0.227455, -4.08061
-2.75385, 0.899634, -1.41497
-2.07039, -2.26927, 1.78122
2.29262, 1.76277, 5.00688
0.349871, -1.09253, 0.916855
-0.394046, 0.503533, 5.36922
0.564988, 3.85377, 4.5015
-1.17444, -0.24832, 2.71779
-5.01789, -2.95142, 7.3653
-0.290344, 0.691487, 2.73279
-2.76439, 0.328474, -2.75138
-0.464901, -1.5039, -5.01723
-1.73542, 9.89402, 8.6499
6.72469, 5.79407, 7.41335
-1.47579, -1.60927, 5.81608
2.4097, 0.957539, 4.4755
-1.18293, -0.33477, -5.11499
0.341945, -1.18657, -5.49676
0.213388, -0.732084, 6.89283
-0.144976, -0.145157, -1.17567
1.85819, -2.27819, 6.54121
-0.242363, -1.94953, 5.61642
-1.05776, -0.482824, 4.3621
-1.25911, 3.47163, -3.47056
-1.56102, 1.80746, -1.98699
0.212548, 0.156314, -6.47142
2.276, -3.02652, -4.80085
6.42734, 2.04324, 6.57755
0.446357, -4.28795, 5.41672
-1.22734, -1.03137, -4.79503
-0.974863, 1.37126, -3.68506
0.996584, -3.35814, -7.14811
0.682189, -6.614, -5.88526
-1.60309, 0.653226, -2.78614
-2.2649, -2.54137, 2.06051
1.26971, -1.90004, -0.506577
-0.409425, 0.173198, 2.68873
-2.63668, -0.0738073, -2.87984
0.0272632, 0.281237, 1.74925
1.1665, -1.42528, 1.59009
-0.825901, -0.982365, 1.34567
0.928662, 0.569909, -6.22312
-4.34933, 2.20518, -2.629
-4.44813, 0.837165, 6.11557
-1.21112, -2.6331, 1.83208
6.49837, 0.703404, 1.38819
-0.67922, -0.405287, -2.30693
-2.04842, -0.265146, -4.31816
2.90904, 1.26477, 3.34849
-0.129719, 0.260313, -3.02607
0.355807, -1.32259, -6.15171
1.06769, -2.31761, -9.89563
-0.166808, -1.89475, -2.42518
6.06014, 1.62452, 4.35037
-0.844543, -1.23829, -1.77173
5.3306, 4.28579, -6.65525
0.780528, -0.926359, -1.68435
1.84541, -0.724376, 5.00804
-0.889594, 0.936764, 3.96724
1.3889, 0.12656, 6.09429
-0.123519, 0.669864, 3.84275
-0.173934, -1.65466, -2.87786
-2.91943, 2.19032, 4.16453
-1.70379, -3.05318, 3.92839
-1.35214, -1.44728, 3.30911
-0.940344, 0.965398, 2.01556
-0.327394, 3.49631, 4.41777
0.760711, 0.79287, -4.72445
0.695847, 2.26158, 3.27205
1.77267, -0.691624, -1.7714
5.03712, -5.03241, -3.42011
1.4351, 2.13762, -5.17435
-0.571815, -0.762637, -4.36117
-2.48926, 2.76864, -4.61778
1.1313, -1.04653, -3.20952
-3.34195, 3.13587, -2.8267
-0.330697, -2.78223, 4.21048
-2.42348, 1.02632, 2.92391
-2.29871, -0.00850853, 1.99353
-3.35203, 0.373022, 5.94394
-2.15146, 2.02941, 4.88982
-1.82669, 4.6573, -5.12082
2.18283, 1.49552, -2.69727
4.44912, 0.895729, 1.65115
2.6253, -2.04008, 1.70157
-0.916793, 0.992918, -2.36171
-1.7702, 2.39516, -5.05338
1.26709, -2.62459, -3.7304
0.172744, -0.0717347, -3.37132
0.708435, 1.07212, -2.14625
2.60297, -0.354881, -2.47302
-6.67425, -0.165072, -9.50597
-7.00843, -1.44715, -3.32353
-3.20239, -3.3619, 1.60766
0.331939, 1.71851, -1.06286
2.13784, 0.547382, -4.23322
-1.31898, -0.570922, -1.96152
0.577726, 0.904774, -3.34009
-1.06122, 5.55597, -4.32
1.17886, 0.364523, -5.31099
0.0885524, 2.00319, -7.27363
0.495413, 6.21539, 1.8223
2.45534, -0.0477052, -3.67392
-2.63222, -2.31911, -3.27529
-3.67587, 5.78154, -2.48557
-2.77158, -1.9767, 1.56844
-1.59854, -1.43113, 0.836325
-5.21779, -3.62565, 3.49034
4.89011, -3.07079, -3.17046
-0.128586, 1.20547, 3.29994
-3.98635, -2.28003, 7.84784
1.44437, 2.86629, 3.9243
-0.323937, -0.481967, 1.26841
-1.99118, -3.28877, -5.2308
-0.178789, 1.14746, 0.67923
0.106106, -0.0390295, -5.03474
0.830294, -0.675797, -2.48685
6.82491, 3.58884, -2.57702
-3.73522, 3.0093, -7.35049
0.768437, -0.423045, -3.65061
0.00523618, -1.80707, -3.03422
2.49645, 1.68318, -3.94624
0.775031, 3.16263, -4.68917
-2.28969, 2.25761, -2.48434
-4.8375, -1.41058, -2.6711
-1.98774, -2.0421, 5.45622
-1.29676, 1.0691, 1.899
1.15441, -1.46336, -3.45906
-5.66751, -4.17749, -5.57938
1.12451, -2.79899, 1.4027
2.53645, -2.46868, 4.68587
-1.34049, 1.45173, 2.2066
0.409567, -0.382989, 2.9595
-0.189664, -1.28253, 5.87701
0.242754, -1.61832, -4.78088
0.518513, -3.67351, 2.28593
0.780687, 0.615832, -2.58639
1.47129, 1.14128, -2.25967
1.07916, 0.0237098, -3.14666
2.32932, -2.24617, -3.75485
-1.88627, -3.52092, -2.85429
5.99907, -1.6356, -4.12926
0.37876, 5.50385, -4.60047
1.94594, 4.75636, 2.82598
-6.55547, 5.23847, -3.3876
2.28192, -2.59653, -6.61314
-8.97426, -0.821013, 5.50693
2.077, 3.48629, -4.62617
5.78886, 0.593304, -4.01536
-2.93965, 1.15344, 7.80684
1.71926, 4.35744, 3.94364
-1.9118, -0.83758, 5.34834
3.01536, -1.80173, 3.72843
-1.24687, 0.832971, -2.9863
0.618998, -3.07201, -2.85939
0.476436, -2.3777, 4.56057
0.726852, -0.977524, 5.40222
1.61473, 1.76372, 5.7544
0.0644278, 0.943166, -3.39792
-4.51333, 1.07468, 5.48733
0.746857, 1.28552, 2.14227
4.36774, -0.835203, 11.5673
4.46368, 1.66362, 3.24818
-1.01854, -4.09088, -3.50959
1.43929, -0.805728, 3.82324
1.56458, -0.873236, 4.68113
-3.68522, -0.214782, -2.85124
-0.413906, 0.713477, 3.76622
0.681491, 1.45522, 1.42298
-0.670355, 0.683482, 1.9195
0.637715, -2.3612, 7.27244
-4.86394, -4.923, 8.79076
0.883158, 5.03581, 4.18218
0.880455, 1.75102, 1.8913
0.299248, 2.9275, 3.22907
3.03989, -3.24202, 2.10435
-2.95743, -3.08074, 3.63286
2.4006, -2.48582, 2.64716
-2.44704, -4.13734, 2.71574
0.89245, -1.40057, 1.8753
-3.92072, 7.68206, -2.53277
-1.00049, 1.78087, 3.97976
5.08677, -4.13833, 4.6657
-1.08956, 0.789472, 3.74691
1.84159, 3.26811, 5.37728
1.05081, -2.67765, 1.643
0.216756, 0.666736, 1.95108
0.0763626, -1.16524, -2.46717
0.14303, 0.143279, -0.360121
-0.554377, -3.82187, -3.55679
0.427031, 0.92711, -3.00192
-3.32695, -1.78945, 5.9455
-2.97843, 1.38582, 4.21262
1.29671, -1.77709, 2.05146
-2.63179, -3.23836, -3.64959
1.04006, 6.4727, -4.40058
2.0126, 0.817249, -0.977087
4.1341, 0.686108, 1.85297
-2.25785, 1.01342, 3.87419
1.07597, -1.73111, 1.72406
0.708305, -0.381978, 3.13422
0.575343, 3.03287, 3.78059
-1.37417, -1.60698, 5.53874
-2.82787, -3.21664, -6.48263
0.0618765, -2.55303, -1.62778
-3.0613, 1.99373, -2.28612
-1.3359, 0.826837, -4.01752
-0.650892, -1.5513, -3.87607
3.06619, -3.1898, -4.97442
-0.227122, -2.55243, 3.62453
3.37343, 0.752035, 4.70002
-0.756526, -3.34738, -3.23142
-2.01299, -0.112111, 2.76127
-4.19726, -0.255872, 8.17677
-0.162949, -3.04787, 5.75492
0.67921, -2.0818, 2.96317
-1.8785, 1.32903, 2.893
2.09573, 3.86312, 4.34575
2.10622, 2.96387, -2.62227
0.0804841, 3.46257, -2.26399
-0.925419, 0.210836, -1.26421
6.58317, -6.88325, 7.07303
-3.25767, 1.69614, -4.09738
-4.58757, -2.78328, -7.66346
-3.20001, 0.00171388, -4.02564
1.10011, 0.370785, -3.38903
-0.0784284, -0.446578, 2.48559
-1.1798, -3.00407, 1.89886
-1.12022, -3.25038, 3.72495
-0.12275, -3.12965, -6.14183
0.269388, 1.26244, -0.640256
-1.06061, -0.695672, -3.7852
-1.96402, -0.892761, 4.38025
-2.43402, -2.38673, -2.05327
0.206582, 0.691646, 1.71139
2.60098, 0.252637, -3.51616
0.645188, 0.569905, 1.05866
-0.599021, -2.64919, 1.56414
2.34795, -1.02475, -0.544183
-3.82391, 3.59898, -3.66829
-0.88673, 0.17704, -2.33023
1.73593, 0.451672, -1.19853
1.70892, 1.32183, -4.53756
1.10789, 2.16635, -6.91592
-1.60304, 1.05691, -2.01647
-0.713863, -2.40182, -4.45803
-0.28616, 2.16925, -0.672461
5.42031, -1.37426, -1.51474
2.81782, 4.3799, -4.4017
-3.18698, -2.16894, 0.817343
-1.19017, -1.89332, -4.06226
-0.867137, 0.815551, -4.45622
3.54083, -0.846862, -2.26695
-0.325246, -2.14489, -5.07797
-1.81733, -2.56747, -2.15728
-1.20889, 0.242799, -5.73973
-0.353515, 0.17635, -2.08882
-1.13719, 2.82651, -1.64878
-2.54855, -1.22148, -2.42567
0.396562, 1.23363, 1.86699
-3.90761, 3.47703, 3.16369
2.60151, 3.98207, 3.57257
-0.417571, 4.56268, -2.50928
-0.935415, 1.19018, -0.241639
2.2955, 1.89256, 5.50976
-3.00724, -3.631, 2.93221
2.11449, 1.20361, 4.32593
3.15572, -1.68531, 11.7816
-2.03689, 0.644045, 5.37066
-1.25353, -0.130364, 3.04776
-1.80593, 0.20396, 1.22714
-2.4043, -1.1946, 3.3964
1.90668, 5.02999, -4.83319
-10.9007, -2.71741, -3.9342
0.825303, 0.74166, -1.61113
-1.05697, -2.24924, 2.95867
-3.09632, 2.69956, 11.4569
-2.0616, -0.915395, 1.87526
0.566346, -0.947425, 4.03952
-0.31893, 3.11601, 4.0959
1.94273, -0.876511, 1.8987
1.76464, 0.869188, 4.65099
-3.79902, 1.75546, 2.69296
-0.462117, -0.375732, 4.92548
3.68567, 0.0761275, 4.76267
1.093, -2.96394, 7.68639
-1.48383, 6.3468, 2.40381
4.4823, 1.87623, 3.99299
1.11893, -0.902968, 1.37752
-1.27053, -0.292411, 3.79923
0.921537, -0.848087, 2.02257
1.41362, -0.0710379, 1.2358
-4.04927, 0.965779, 1.37627
-3.31116, -1.91022, 2.34496
-1.01371, 4.40295, 3.73074
-0.726799, -3.89468, -6.38241
-1.14532, 0.536094, -4.8962
1.89176, 0.837084, 3.46712
-0.464648, -3.28769, 4.91238
-4.06538, -1.51457, 3.48056
-0.602935, -0.0184555, 0.954833
-0.485426, -2.67284, -5.18449
-3.65874, 6.51305, 6.57811
0.264846, 0.494656, 5.05953
-0.0990076, 5.01981, -5.86663
-5.00114, -2.10233, -3.49803
0.912862, 1.56851, -2.46012
-0.252864, -1.59481, 5.45406
3.46888, 1.16713, 3.59082
-0.478827, -2.01188, 4.76619
-3.32606, 3.95197, 6.42351
1.11402, -3.28351, -1.1682
1.29107, 3.61699, -5.55801
-0.132034, -2.90647, 3.2421
-0.707992, -1.25239, 2.33135
1.46995, -2.27458, 4.65688
-4.40463, -2.31835, -3.06943
-0.48968, -1.89818, 2.11674
-2.05822, 2.03908, -1.89596
1.57493, 1.33382, -4.84938
-3.42709, 2.54526, -4.79172
1.02406, 1.60227, 6.9677
0.123944, 1.04772, -1.46407
-4.97284, 1.86315, -4.14476
-10.1103, 5.88403, 0.934246
-2.30376, 2.78151, -4.24245
-0.64283, 0.462509, -2.13097
-0.740153, 0.444731, -1.97721
0.72819, 2.53456, -4.6233
1.40899, -2.00614, 3.74607
-1.99064, -1.97099, -2.12912
-2.59524, -0.316789, -5.26345
0.53396, -2.80348, -4.00198
-1.58122, -1.74693, 5.15145
1.16806, 1.51098, 3.44179
0.827383, -0.140934, -1.95632
-0.409001, 2.77375, 2.82243
5.13565, 0.608279, 2.04363
4.22058, -1.24319, -6.30886
-0.279003, -0.941647, -3.32487
-3.41385, -0.613075, 8.37061
0.667855, -0.367803, 3.93685
-2.45966, -1.51026, 2.8632
-0.893869, 0.920766, -1.97148
-0.526862, -0.338939, -3.1369
-0.370368, -0.411933, -1.43447
2.6017, -3.72946, -6.34357
1.87496, -2.32848, 4.28427
2.73888, 0.048924, -3.30783
-3.84774, 1.89014, 4.92733
-1.11552, 0.817772, 1.05398
-1.70112, 1.01563, 7.7881
1.31713, 4.50715, -5.66356
-0.459728, -1.73895, -7.05277
1.18822, -0.436204, -4.90371
0.26273, -0.584806, -2.23544
0.797762, -1.06674, 8.19645
2.76878, 0.665907, 3.79038
0.69745, 0.922904, -3.25197
1.07699, -2.59008, -4.2153
-0.55786, -0.924596, -2.24874
1.40987, -1.83707, -2.52054
-0.798508, 1.06756, -6.36542
-1.61105, -1.97907, -3.12493
1.20915, 0.355047, -5.22615
1.07105, -2.33499, 2.6404
-2.5405, -1.16371, 1.99516
-0.334686, 0.159143, 2.17574
-2.75836, 1.91833, -5.03984
1.63642, -1.6237, 3.04112
3.21894, -1.66838, 2.78371
0.414351, 0.327666, 3.95255
0.836684, -1.67044, 1.41604
0.900381, 2.44254, 3.51971
2.11203, -0.724189, 3.38207
-0.226985, 1.48789, 6.21544
0.483632, 1.92089, 2.9024
-1.08625, 1.07561, 3.62188
6.6716, 1.38871, 4.36162
-0.69895, 2.48658, 7.76873
-1.39999, 6.51911, -2.4511
-0.722659, 0.808219, -3.20896
-2.03907, 3.41934, 2.23269
0.450094, 0.637388, 1.34201
-0.678893, 0.762205, 5.28308
1.44507, -1.23033, 3.45444
1.72305, -1.56046, 7.49029
-1.36108, -0.885795, 1.98322
-1.34845, -0.401561, 1.88754
2.35977, -1.98978, 4.36736
-1.5486, 1.30692, 1.7425
-0.691231, 0.671489, 8.0966
-1.88523, 1.32166, 1.74058
4.82595, -2.76623, -1.90232
2.91592, 3.27784, -3.33028
0.534454, -5.80923, -6.80017
-4.79183, 4.28995, -6.91062
1.12322, -0.0966589, -3.41386
-0.24416, 0.727439, -4.83745
-0.250103, -1.02778, 3.4884
-1.37658, -0.797641, 4.42499
-2.1581, 1.60659, 2.88323
0.504678, 1.9655, -4.81423
4.17785, -2.78317, -6.11
-5.48753, -1.20575, -5.84016
-1.14928, -1.8524, -1.75614
1.84612, -0.496077, -4.10748
-1.06509, -0.322856, -1.40407
-0.291872, 0.532479, -1.8736
-3.61956, 2.79152, -3.66033
-2.12272, 0.575831, -2.44958
1.81199, 1.4547, -1.47531
-0.88501, 4.78552, -7.88862
-1.57977, -3.13464, 2.0108
0.0316255, -0.623519, -2.74193
-1.21077, -1.47062, -3.98764
0.273135, -3.01393, -4.53615
0.951782, 1.06196, -4.12183
3.69864, 2.6341, -9.64672
-0.803256, 3.10047, 0.553971
-1.57696, 4.54864, 4.23619
-0.255177, -1.11941, 2.04197
-0.208254, 5.72225, 1.3505
-5.34799, 1.32752, -5.55094
1.87731, -1.82382, -3.52396
-0.890099, -1.85133, 4.29308
0.292877, -0.721008, 2.6429
-0.632264, 1.92424, 2.12943
0.717075, -0.520287, -4.73462
0.296276, 2.04104, -2.35143
2.41013, 1.38583, -1.46906
-3.31289, 0.682272, 2.15859
3.33672, 0.854299, -2.87606
-0.71682, -1.35577, -1.81201
-0.751791, -0.694796, -7.34725
-0.993478, 5.27119, 6.59687
-4.30795, 5.43275, 8.04282
-0.663549, -2.23086, 3.25743
1.39602, -3.41934, -4.59421
4.73415, -2.96894, 4.62211
2.52961, -1.28392, -1.72788
0.204115, 1.29501, -7.04052
0.366261, 0.823292, -0.913875
1.26964, -0.169942, -3.43267
1.30338, -2.30326, 3.60015
0.815315, 8.32111, -2.64643
-0.675712, -0.650014, -4.79785
0.152169, -1.77548, -2.01714
4.50259, -2.77743, 6.93894
1.08459, 1.65915, 4.6051
-4.63623, -0.444159, -6.21599
0.0557433, -2.27859, -5.25215
-3.35881, 3.18746, 4.80388
1.8851, 1.76994, 2.69544
1.2927, -1.70041, 1.09383
0.629873, 0.937014, -0.847463
-2.39636, -2.44339, -3.4578
3.56777, -2.29095, -4.12855
-1.55733, 0.496227, 3.24685
-1.90738, 0.49937, 5.02908
-1.84882, 1.71444, 7.53974
4.49006, -5.53155, -2.65127
-3.01781, -1.40797, -1.3622
1.31761, 1.69151, -1.4983
-0.200325, -1.67848, -2.13815
-0.871406, 2.11839, 1.87484
3.51314, -4.02844, -3.93837
5.75891, -1.95145, 5.86919
-1.63431, 0.821419, 6.51569
0.694855, 0.319127, -2.62718
-0.149244, -0.895861, -3.57584
-1.186, 0.796571, -5.47378
1.13971, 2.45308, -3.6608
-4.32158, 0.984196, -2.22688
0.410849, 1.08613, 1.86181
1.55623, -2.23564, 2.61558
-0.88274, -1.24442, 2.67918
3.66545, -0.381036, -5.76869
1.5951, 1.3796, -2.36886
-2.20026, 0.349734, -5.35588
-0.241863, 5.46389, -5.51891
2.34409, -0.547453, -1.84624
0.908477, -4.80245, -2.99191
0.44456, -2.00275, -7.6739
-4.79128, -3.72546, -2.89192
-0.575922, 3.31074, -7.3597
-1.5826, -0.212666, -1.32213
-5.92267, -10.4563, 5.40726
0.440913, -3.94414, 2.1117
0.881222, -2.2543, 3.29661
2.35838, -0.342053, 1.88976
1.77405, 1.00906, 3.1698
0.609214, 2.32335, -1.08941
0.768038, -0.0427401, 4.15473
-3.29054, -0.77554, 3.14002
0.240464, -3.34594, 6.18405
0.654395, -1.9767, 3.65608
-1.81058, 0.0762046, 5.76796
0.327014, -1.45744, -0.898482
-1.33301, -2.88481, -2.58866
7.95459, -3.7553, -4.80812
-2.94598, -1.8372, 3.89718
-0.749528, -0.575735, 8.54005
0.101504, -0.256083, 5.35701
-2.74119, -1.97682, -0.555264
1.45211, 2.6021, 2.36589
0.598358, 0.0145659, 1.04833
2.23084, 0.703084, 3.76606
-0.532267, 4.10839, -2.73131
-0.701441, -0.55704, -2.40814
2.96153, 1.92861, -3.03185
-3.68576, 0.56809, 3.55013
2.39704, -4.54948, 5.6475
-0.594668, -0.574698, 0.632958
0.00573672, 0.997778, -3.90171
-6.90012, 2.93376, -3.75635
1.03805, -0.943078, -1.08755
-2.43623, -3.65578, 0.920788
2.44218, 0.536103, 6.45171
1.41712, -2.82986, 1.25605
-1.70603, -0.415924, -1.08261
0.290559, -3.4468, -2.67514
2.99167, -0.35665, -3.27646
1.16057, 0.332912, -1.23308
5.95049, 2.45982, -4.44716
4.79098, 1.35985, 2.36709
-7.29783, -1.13134, 3.03839
-1.51955, -2.58333, 4.11829
-2.82323, 1.50159, -1.56818
1.9037, -0.725472, -3.41039
2.53891, -1.78131, -1.11228
0.0643829, 0.35301, -1.02646
-1.00578, 0.0652089, -1.06813
4.70696, 2.48694, 5.09527
1.35773, 0.0334266, 2.97442
-1.0585, -2.01767, 3.04508
4.04523, 1.29148, -3.55447
2.34067, -0.951965, 4.74886
1.57092, 1.33174, 5.59755
1.373, -0.559314, 3.56234
-4.35838, 2.37087, 6.78328
-0.00040463, -2.50839, 3.58114
4.28568, -1.61165, -3.64516
-3.20946, 2.2899, -2.38377
4.37507, -0.10568, -2.51908
1.4472, 0.15393, 1.84206
1.10921, -0.660064, 1.89957
4.83618, 2.26491, -6.69424
-4.13498, 1.31502, -2.41133
1.62304, 0.506017, -1.16596
1.5599, -2.87804, -4.54196
1.94542, 3.4748, -6.70632
-3.50978, 0.156186, 1.1003
2.38231, 1.17303, 2.59148
-2.57903, -3.55157, 1.66953
-0.294094, 0.00605933, -6.61985
-1.39004, 2.23066, -6.49896
-1.973, -2.6004, -2.74319
4.04516, -3.81968, -3.29464
4.0647, -0.456234, -2.1049
0.905839, -2.86211, -4.92156
2.2093, -2.49269, -2.39647
-3.62949, 2.11242, -3.5591
-3.30105, -1.52763, -1.77442
3.67748, 1.40962, -6.31344
5.93111, 2.58374, -5.41263
1.1401, 1.39921, 3.06927
-2.02321, -0.14851, -0.854796
3.48601, 2.97637, -5.38283
-1.49664, -3.04126, -3.36297
1.64255, 0.331663, 2.79352
-1.63795, 2.69403, 3.44228
-0.928356, 4.30108, 5.98655
-3.6858, 0.354363, 8.91571
1.57836, -0.716044, 3.6903
-0.556855, -3.25632, 6.846
-0.29056, -3.21637, 2.28818
0.235647, 2.64026, -3.1387
3.39287, 0.178562, -6.56748
-0.0932728, 0.813449, 0.304464
-0.428117, -1.06443, 7.94606
-3.15544, -2.89186, -1.16982
-0.845766, -2.30252, 5.81948
1.08583, -3.72029, 6.14879
-0.759118, 3.3396, 4.13245
2.22945, 2.60224, -2.58157
-0.93487, 6.77993, -5.55004
-1.98495, -1.80227, -2.80003
0.915472, -0.334996, -2.0247
1.38222, 4.08444, -4.9745
0.896935, -0.435431, 1.60423
3.99142, 1.17014, -1.93225
-0.348419, -2.84944, -4.24277
-0.235392, 1.50623, -3.01445
-1.02431, 3.26693, 3.61886
-0.912213, -5.38272, 5.35344
-1.28816, -1.87271, 2.55366
-4.0449, -1.72311, -4.41174
0.298902, 2.3659, -5.87221
0.749752, -0.402176, -2.79627
1.43407, 1.5105, 4.09933
1.74005, 0.669638, 3.36164
-0.245383, -0.959362, -9.09202
-1.31074, 0.800038, -2.27664
-3.06216, 0.485781, -5.90843
1.81232, 1.9359, 3.43398
-3.21801, -0.87539, -2.31808
-0.255566, -2.19626, -4.79005
-0.729307, -1.1347, 2.63172
-0.929701, 0.760586, -0.313862
-1.20925, -1.53648, 2.81881
6.8816, 2.88677, 2.69261
0.980838, -2.67306, 2.09822
4.94533, -1.44997, 6.84751
3.12792, 2.3181, 2.79294
-4.03241, -0.208972, 2.59674
-1.88312, 6.56248, 6.50231
0.528606, 0.620257, 4.41855
2.86255, -0.0904957, 3.26141
-4.94859, -1.86762, 4.01096
2.68781, 2.20764, 3.1144
4.38487, 3.80927, 2.04243
0.00791761, -1.29739, 5.50437
-0.48275, 4.08277, -7.41538
1.337, -2.18619, 3.97698
-0.343672, 1.56107, 4.46242
-4.74396, -6.32816, -7.72832
1.5885, -0.279222, -1.62852
0.0843072, -0.559602, -3.22109
1.09524, 5.85252, -5.44534
-0.98464, -0.386397, 1.78234
-1.47266, -0.248868, -2.11742
-3.37231, -0.757366, -5.73243
0.134585, 3.78589, -3.42517
10.8179, 0.404253, -8.89164
4.69008, 5.85761, -5.57605
0.734364, 0.313332, -3.14846
0.109523, 0.0707409, -2.00683
0.558054, -0.239376, -6.38757
-5.86349, -3.35369, -6.90716
-1.91268, 0.636924, 4.39771
2.56974, -2.30525, 3.9466
2.14424, -0.561071, 0.711993
3.016, 0.912704, 1.39739
-6.63955, 0.142599, 3.76303
6.13337, 1.87257, 3.57754
0.792643, -1.0728, 1.46191
1.39931, -0.153632, 2.21706
0.621191, -3.38322, -1.2263
-0.824804, 0.362288, 2.32282
-1.76325, -0.205843, -1.08866
2.45502, -3.6099, -1.93494
0.257499, 4.53523, -3.6479
-1.55692, -4.32067, -4.16927
1.76396, -4.30788, 2.24109
0.00408206, -1.1271, 5.47946
0.465705, -0.28894, 3.36416
0.887617, 2.09902, 2.75743
1.16835, 0.168056, 1.87135
-1.38593, 2.4002, 2.50173
-0.435329, -0.618054, 1.65847
-0.321874, -3.1397, -2.30232
-1.15825, 1.01, -5.19033
3.27002, -1.21205, -4.67343
1.0599, -0.0798316, -1.83015
-1.24433, -1.29871, 1.46929
1.35102, -0.269358, 2.306
5.90126, -2.07362, 2.29068
-0.955955, -0.555706, -0.889459
0.077567, -1.09564, 2.81973
0.773496, 4.90532, 3.53659
-1.91207, 2.1504, -2.03194
-0.994271, -0.375103, -6.63985
-1.06733, 1.01691, -2.66981
1.77857, -4.03343, -4.08947
-0.034452, 1.05353, -1.08865
0.93769, 0.83684, -7.81811
-1.34255, 0.55981, 0.956691
-0.0859756, -0.929906, 6.76841
1.08977, 1.5179, -5.25664
2.95804, 2.9921, -4.48002
1.07607, -4.05733, -4.08612
3.32852, -0.555243, -3.14511
-2.23908, -0.436933, 2.5388
5.13989, 7.17794, 4.10634
1.36772, 3.90432, 2.5962
-0.63455, 0.552788, 5.91479
0.881734, 0.274883, -1.83243
1.95304, 0.0098408, -1.15849
0.380017, -0.144293, -1.58395
0.0116547, 1.84884, 4.156
0.334448, 0.85858, 6.64061
-0.708709, 2.73423, 9.37985
-2.99751, 6.4813, 4.79368
-3.85487, -1.15168, 2.57017
-2.41802, 2.06104, 4.26805
-0.911732, -1.62718, 1.33551
-1.59225, 0.997214, 6.11174
3.84322, -0.0987371, 4.00362
-0.301342, -2.20519, 3.5585
3.4519, -2.36602, -4.59243
1.30597, -2.22756, -2.37862
-0.0887631, -1.30118, -4.13937
1.11959, 1.3439, 1.67439
0.181117, -0.206759, 1.88629
0.558228, 1.47971, 4.78569
4.00966, 3.18443, 11.2457
5.72859, -5.13743, -3.0083
7.65742, -3.35493, -8.26386
0.704475, 1.5792, -3.29078
4.46745, 4.23106, -3.01343
-3.45907, 1.59072, -2.20408
-2.34392, -1.53078, 5.49009
1.65675, 0.161663, 6.74329
-1.35613, 1.25144, 1.97092
0.00597716, -0.601681, -1.95511
-2.62627, 0.940817, -4.31281
-2.34806, 0.834988, -2.92395
-0.295888, -4.19326, -5.6399
3.01198, -1.30822, -7.95678
-1.03294, -1.61229, 2.07077
1.1344, 0.702021, -4.27665
-0.479041, 1.05325, -3.41517
0.740684, -4.25089, -3.35567
-1.47251, 0.817454, -1.28792
0.224074, -0.724346, -8.80727
-1.75343, -5.73987, -3.58808
-0.85632, -3.16594, -4.63587
4.54212, -1.43953, 6.48258
3.7905, -1.52454, 2.32821
0.489363, -4.84537, -1.07221
-1.60959, 1.13771, -1.6516
-0.173393, -1.24825, 2.96135
-7.00175, 0.0102659, -2.46597
1.31, -1.46787, 2.32134
2.75668, -2.67035, 5.70473
-3.21499, -0.0990147, 3.92582
-1.7404, -0.0836006, 2.14796
2.11922, -0.643397, 4.33662
1.19485, 1.1724, 4.67574
0.413478, 1.17047, 1.41597
3.22416, 2.09898, -2.12384
-2.41622, -0.0744595, 5.67482
-2.70155, -3.93573, 5.58282
1.46499, 3.9449, -4.33342
2.14017, -2.41733, -4.17927
-4.83425, 4.36098, -2.04831
0.294913, -0.745788, 3.52464
1.02859, 1.34101, 3.22019
-1.28288, -2.5496, 5.35593
2.15422, -0.871939, 3.22703
-0.738745, 1.94572, -0.93522
1.78443, 3.77594, 5.06637
0.415333, -2.02226, 2.13002
0.0527673, -3.64864, -4.38079
-0.197162, -0.257228, -3.28449
0.841252, -5.02733, 7.03862
1.47118, 1.33828, -4.06575
-4.00243, -0.743114, -2.22043
-2.38979, 0.433008, -1.81512
-1.71431, -0.71505, -0.640354
2.9285, 2.85702, 5.88606
-2.82566, 2.33196, -3.75291
0.110346, -1.17941, -2.43058
0.728409, 2.20726, 2.06805
-1.13615, -2.41679, 3.91261
-0.456591, 2.26928, -3.48988
0.712467, 1.24552, -4.55006
-0.690538, -0.848234, -0.940911
-2.25081, 0.52207, 4.79236
0.476881, -2.85473, -4.78138
1.55379, 1.34075, 2.11957
1.42374, 0.180581, 2.29527
-3.41689, 0.760264, 3.13383
-2.15666, 0.841178, 0.555096
-2.39736, 0.00748522, 3.28712
-4.37888, -0.494691, 3.83379
0.487265, -1.48776, 2.93761
1.57775, 0.131633, -4.61926
1.11785, 0.534558, 0.745598
-3.75417, 0.824176, 1.17415
0.853684, 1.2065, 1.62009
1.70362, 2.06666, -4.56216
-2.05209, -3.07539, 2.38241
0.00971352, 1.57616, 2.40368
1.3172, -1.14626, -5.33402
-0.483896, -0.418007, -6.77368
-0.904184, 1.91523, -3.0242
2.6753, 1.8886, 3.19743
-1.1251, 2.20411, 6.17216
1.59158, 0.512905, 3.23339
0.727333, 0.508075, -5.75143
2.29838, -1.86914, -1.98805
1.82296, -1.10504, -3.04593
1.72598, -0.452489, -2.53421
5.7266, 1.83116, -6.76898
0.089474, -0.0163601, 2.79654
-1.6564, 0.959499, -2.80471
-0.513651, 0.311938, 1.76499
0.556346, -1.06198, 0.68179
-0.258506, -1.05116, 2.04445
-2.24282, 1.14004, 2.87454
1.34427, 7.38154, 4.48644
3.05532, -1.99587, 5.2008
-0.791244, -0.660951, 5.40178
-1.94137, -3.62524, 2.31742
0.909444, -0.390402, 3.38981
0.0401435, -0.677247, 2.47814
-0.382676, 2.49623, -0.438334
-0.521947, 1.88096, -2.44852
2.1705, 5.50082, -3.43801
-4.89308, -3.01002, 10.4649
3.49019, 0.661249, 1.51845
3.53602, 0.328167, 3.87023
2.3929, 0.341218, 2.68011
2.58855, -4.19226, 4.91552
-2.615, -5.01751, 12.6688
-0.618362, 0.653025, -2.71442
-3.86823, 1.94519, 4.1812
-1.00894, -1.3148, 2.69421
-1.52726, -3.11638, -2.20376
0.534711, -0.564974, -3.86092
0.748614, -0.698236, -2.34207
-1.42389, -3.30492, 7.39809
-2.01402, 1.66596, 3.58364
0.537398, -3.31483, 4.40049
3.53115, 1.72154, 2.18573
-2.68287, 4.35267, -8.55504
-1.183, 0.79062, -2.74761
0.273979, -3.72315, 4.43985
-0.669552, 0.855633, 4.44471
-3.87684, 9.44403, 6.33258
-1.47902, -3.31022, 4.86432
3.70382, 3.71376, 3.39894
1.34229, -0.0109664, 4.63881
-0.501278, -0.53467, 2.81535
7.56343, -4.46142, 2.09797
-0.533655, -3.76612, 4.25459
-0.443335, 2.93292, 1.85787
8.32239, -0.590531, 5.62829
-0.218417, -0.889541, 1.34686
2.1105, 0.504424, 3.78955
-0.470191, 2.79641, 7.43715
-0.994901, -0.312755, 2.40305
0.561789, -2.30364, 2.5606
0.0173041, -1.55009, 3.58772
1.21805, 0.236649, 1.04628
-1.95762, -0.363164, 1.35982
2.25058, 0.806104, -2.46642
-1.82413, 0.156175, 1.35167
0.887774, -1.18455, 1.52154
0.657276, -0.61391, -2.07226
3.21652, 1.81517, -6.97346
-0.95404, -1.09495, -5.45604
2.28733, -1.17647, 3.21744
2.54474, 2.04508, 3.46097
-1.74806, 1.56223, -2.70535
-0.00401843, -0.259256, 2.66374
0.262499, 1.86007, 1.03507
-1.78944, 0.699314, -2.87279
2.73975, -0.212337, -6.33353
-0.261691, -0.668988, 1.54333
0.156914, 3.11956, 2.32747
0.695233, -0.442536, 2.5277
-3.09351, -6.08976, 3.99493
-1.95935, 1.15079, -3.42648
-0.912409, -0.460115, 5.96095
-0.810805, 0.437867, 4.98274
1.43351, 1.72961, 4.58195
2.37892, -0.834449, -8.37603
-4.35263, -3.33346, -4.81965
0.424744, -0.0951687, -2.1752
5.26519, 1.59907, 4.67833
-1.47669, -1.80203, 5.82484
-0.877299, -1.17302, 5.26338
1.62348, 0.663836, 3.69911
-2.53225, -0.472722, 2.17899
-1.01298, 2.72315, 2.84913
-0.606329, -0.792165, 2.76172
1.62888, 0.189285, -0.550463
0.0435024, 1.35214, -2.87062
-0.486857, -7.76201, 4.46401
-0.660115, 2.91971, 4.3812
-0.700924, 5.88226, 6.7947
1.23553, 6.68457, 6.43609
1.28886, -1.13524, 2.08923
4.26743, 0.731653, 3.05446
-2.02006, -0.822429, 4.40968
1.10297, 0.283445, -0.803673
1.23949, -0.802121, -5.92403
-0.228609, 1.89168, -5.60184
-2.65942, 1.36798, 2.55276
2.90978, -0.799132, 3.52837
-1.68476, 0.77956, 6.07699
-0.546984, 1.36066, -4.00137
-0.182155, -1.0073, -3.04155
-2.80825, 2.05897, 5.00479
1.11531, -2.01629, 5.55793
2.77386, -3.5201, 2.51703
0.208241, 2.33469, -4.7394
2.19211, -1.96853, -2.17815
0.193559, -1.05861, 4.08089
-3.83881, -0.689138, 0.7432
3.4778, 2.30193, -5.41467
-3.62115, 3.90187, -5.59038
5.26801, -3.60818, 1.89848
0.923601, 0.166968, -1.06701
-1.97849, -0.946909, -2.40299
2.39949, 3.7259, 6.6243
-2.35051, 0.00723314, -6.47785
3.35069, -2.70878, -2.36201
0.723297, 1.40619, -3.10001
8.2214, 3.68593, -7.01443
-4.24758, -1.03407, -2.05529
-4.60964, -4.24621, 1.0311
-2.58922, 3.77154, 7.06423
-3.14093, 0.0264095, -2.87206
0.300915, -0.973221, 5.96335
2.22801, 0.251874, 1.25224
-3.2017, 0.429554, -3.49088
0.0337229, 4.40217, 5.62394
1.8046, -0.0323162, 5.87162
3.96478, -0.651727, 9.51596
-5.98727, 8.7821, 10.9255
-1.4502, -1.54693, 2.09118
2.29909, 1.26944, 3.44366
-0.15031, 1.59523, 1.30771
0.820315, 6.76965, -2.19917
4.37327, -3.88254, 6.76035
-2.92173, 1.23308, 6.7547
3.78871, -1.74391, -5.2866
3.24659, 3.06466, -5.17006
0.487466, 0.684772, 2.92529
-1.75623, -3.40213, 3.73841
-2.80383, 1.93369, 4.9662
0.0611759, -0.782505, -1.00858
-3.0213, 5.98217, -2.18951
1.36082, -0.882724, 3.72611
-3.35196, -5.4293, 9.15206
-0.524306, 1.0849, 6.49715
-3.95206, 1.57908, 2.3168
-0.553712, 0.804124, -1.43888
-1.22316, -0.373281, -2.62559
3.05023, 4.17238, -4.11694
0.422888, -4.37922, -3.50183
-1.02596, -3.64468, -1.67281
-0.242342, -0.882759, -2.02139
2.39319, 1.70495, -3.44604
-0.310458, -2.07853, -5.04529
1.2524, -4.53005, 0.727859
-1.35647, 2.09043, 3.05752
-2.17286, 4.66422, 4.01977
-1.09665, -1.3606, -1.2234
1.1136, -0.592019, -2.34785
-0.216557, 0.201115, 1.69785
0.798627, -0.567804, 1.9573
0.801196, 0.356315, 3.34298
2.13562, -1.10453, 6.12196
4.16549, -0.207463, 6.4606
0.176249, -0.132372, -3.00523
1.90104, -0.894377, -3.61127
-1.95307, 3.25066, -5.06658
-2.61991, -0.666375, -3.63901
0.0813328, -1.72076, 2.71742
-2.48385, 1.89284, 2.07492
-1.40626, -0.0755539, -6.35623
-2.39132, 1.05758, 5.27916
1.4627, -0.751637, 2.89161
-0.746479, -2.46026, -2.89864
-0.812982, -3.41226, -2.93907
1.31249, 0.722679, 4.03683
-0.558096, -2.81122, 1.48481
0.214087, 0.535365, 2.10656
1.49513, -1.97606, 3.70563
1.2411, -2.42434, -3.26508
2.26235, -0.490611, -4.41635
-4.76502, -2.27247, -3.66887
-1.91814, -1.57931, -5.24547
1.41051, 2.38242, -3.34762
-4.55546, 0.429863, -3.36799
1.12023, 0.21046, -7.0636
0.878046, -2.4414, -2.12107
2.19148, 0.363059, -5.635
-0.800991, -1.48539, 2.82812
-0.903346, 3.99403, 3.81809
2.91489, -0.695398, -1.12853
2.00291, 1.2112, -0.840312
-1.9087, -0.295279, 6.17686
0.497266, -1.16127, 2.62187
0.758916, 0.0488352, 1.66245
0.111815, -0.930792, -0.333956
-2.0045, -0.899563, 1.61154
0.323601, -0.389621, 6.38325
0.269555, 1.20112, 1.14335
-1.51885, -4.67672, 7.59653
1.2346, -3.4581, 7.366
3.20665, -2.8312, 1.92281
-3.69761, 3.21453, -2.32198
-2.96331, -2.20089, -3.36593
0.664603, -1.34469, -5.18052
4.8766, 1.15003, -7.17417
-3.69746, -2.78147, -1.85162
0.537134, -1.66468, -6.51099
-0.447071, -2.354, 6.40476
1.68857, 2.75841, -3.81753
6.55336, -0.736597, -0.369067
6.24991, 7.15955, -9.79171
4.23931, 0.833754, -6.31592
1.17307, -5.14432, 3.30029
1.54648, 2.51733, -6.71486
-0.0410502, -2.25332, 1.46222
1.09487, 0.285689, -1.91652
5.31665, -0.198465, -7.11978
0.708364, 1.80222, 3.39809
-0.157998, 2.19044, 2.20549
2.7058, -6.56615, -5.6162
0.0881585, -0.411543, 3.47138
1.14325, 0.593327, -2.88215
-0.996987, -1.48783, -0.795168
0.620499, 0.312639, 2.66322
2.04217, -0.836189, 4.9706
-0.955481, 0.363267, 2.91146
-3.16576, 6.72096, 3.92593
3.04431, 3.5288, 3.7969
-2.3126, -2.73458, -3.11303
-0.0871713, -1.3397, 0.983408
3.02802, -1.99762, -2.36112
-1.37115, 1.83268, 3.74803
1.48645, 4.2197, 4.00588
-2.92933, -2.98662, 2.61517
-3.7834, 1.02107, -3.0093
2.85622, 1.82585, -5.73692
1.77834, -3.51837, -4.15087
-0.14382, 1.46999, -3.86373
3.29655, 3.96533, -3.04541
-2.29264, -0.897116, -6.28123
-2.01966, -1.13643, -2.05849
1.84969, 1.27357, 3.77624
0.0138172, 2.39898, 2.23074
4.11842, 0.190111, -1.31581
-1.75165, -2.60862, 2.52721
6.58078, 3.92887, -7.90659
0.00443472, 1.36578, 5.98154
-1.75156, -0.658335, 3.5946
0.161129, 0.836998, 3.95273
2.41224, 0.205539, 3.78563
0.171985, -1.56618, 1.34631
1.39521, 0.054473, 2.59368
-1.10253, 0.32554, 4.73211
-3.00394, -1.10418, -2.37311
-0.865982, -0.310474, -3.87524
3.47463, 0.604889, -5.65984
0.350701, 1.20018, -3.13448
-1.75317, 2.01974, -3.2306
2.87239, 0.307716, -3.38857
-0.230235, -0.681356, -2.58136
0.151329, 1.5583, 0.427075
0.0437094, -0.494509, 1.1886
3.35739, -1.77298, -5.96368
0.497959, 1.67668, 1.87713
-0.650365, 0.991387, 2.03265
0.397208, -0.569971, 1.07171
1.35309, -0.319204, 3.7436
-1.58905, 1.47835, -3.23828
0.419045, -0.908667, -2.17733
2.35428, -2.98757, 0.772709
1.76354, 2.52768, 2.79767
-2.40646, -2.66777, 1.99774
0.398018, 0.160232, -1.70754
0.0202331, 7.62059, -7.14878
1.41386, 3.14997, 3.25036
1.44255, -2.40388, -0.463578
2.48675, -0.0915821, 2.1353
-3.09888, -1.88796, -2.52389
-4.65686, 4.50569, -4.32078
-2.18516, 0.161878, -2.94511
-3.89972, -0.100537, -3.56436
0.190852, -1.46184, 4.1909
-0.972504, -3.9301, 2.25823
0.231841, -1.32197, 4.73636
0.531242, 1.77008, -3.20901
-2.77214, -1.6564, -2.03339
-2.38177, -0.332631, 2.87544
-4.89329, 0.833886, 9.80596
-4.28404, -1.5888, 2.39678
2.88935, -4.23371, 5.09255
-2.55072, 0.251555, -1.21156
0.187689, -0.663939, -5.24187
2.16893, -1.61036, -5.02981
-0.167932, 6.13781, 2.72881
0.0557522, 0.434837, 3.42046
0.600156, -0.648181, 3.78003
2.08122, 2.11857, 3.99444
3.80242, -1.73224, -1.44864
-0.174082, 1.07832, 1.94383
-0.370428, -0.759219, 2.9237
1.37332, -4.40353, 6.35316
-6.13411, -0.596454, 1.82821
5.56904, -5.63338, -6.90404
-1.4049, -0.843689, -6.75181
-3.74498, 0.322075, -1.35043
-1.69985, 1.45878, 2.5098
1.30362, -1.38094, 3.97367
-2.64914, -1.69871, 5.48316
-0.789498, 1.12548, -5.65825
-3.14835, -3.34898, 4.05366
-1.24768, 1.02191, 3.78635
0.739729, -1.00417, 2.20498
-0.13748, -2.52932, -1.31391
-0.236275, 2.10972, -2.37936
-1.05311, 2.19528, 5.12753
-0.976562, -4.34761, -5.39422
-1.07797, 0.831076, -5.93037
0.643323, -0.403453, -1.0314
0.927142, -1.69864, 1.68393
1.25147, -1.0941, -3.40948
-1.46009, 2.44891, -3.74799
-0.342347, 1.68699, -2.73307
3.86663, -3.15873, -7.28168
-1.19582, 3.09054, -3.78443
1.41405, 0.0859073, -0.998205
0.197597, 3.71525, 4.31406
-0.164349, -1.58551, 1.66334
0.557099, 2.44125, -1.30315
0.493855, -1.98935, -6.9224
0.836435, 0.503615, 3.82683
2.80206, -0.221969, 5.63115
-7.76471, -1.28369, 8.31968
-2.49229, 1.58097, -4.21621
5.11965, -1.06691, -2.60074
1.73555, -0.856594, 4.13845
3.19245, 1.00639, 2.15553
-0.236408, -0.301832, 3.14662
-4.55845, 1.2024, 1.23681
0.148168, 5.10513, -4.31839
1.07391, -3.46234, -1.09037
-1.31859, -0.920097, 1.65426
0.674616, 0.920038, 4.17986
4.68106, -4.79562, -3.91977
2.33442, -1.92775, -3.45666
2.02069, -1.92325, 1.9734
0.585022, -0.659251, -0.751547
1.19722, -0.75763, -7.44885
-0.657595, 7.34815, -4.61266
0.788409, 1.53649, -2.9607
0.547017, 3.16613, 5.34001
4.11765, -1.70503, 9.68174
5.56501, 3.70124, 7.23436
-3.40435, 2.63271, 4.53092
2.00651, -0.034502, 2.48187
1.58626, 1.98636, 5.52992
-1.20898, -0.0650736, -3.68705
1.15143, -3.45607, 1.40293
-1.77406, -2.06592, -3.83412
-0.100313, 3.14951, -2.70669
-1.91485, -1.84431, -5.70085
2.91003, -3.59774, -4.88115
0.910937, 1.34888, 1.27761
-0.0187089, -0.139912, -4.72259
1.37141, -0.431242, -3.99192
-3.54539, -2.96734, 2.83466
1.21448, -2.08019, -3.77523
-0.862106, -1.24283, -4.45472
-1.35568, -3.20857, -2.41692
-4.6894, -1.10692, 3.20532
0.0195952, 1.29338, 7.17715
-0.139713, 5.01208, 1.91451
-1.82723, 8.24224, -2.75823
0.561125, -1.12931, -4.36862
-4.66227, -0.395289, 1.6907
1.25451, 1.12043, 1.55612
0.586072, -0.288007, -3.52699
-0.819121, -3.38237, -4.30489
-2.61105, -4.11127, -4.27944
-2.87579, 0.86599, 2.03137
-1.37536, -3.43271, 1.41662
2.0137, -5.57582, 1.57048
-1.21253, -0.453219, 3.9437
-0.28705, 1.32225, 2.70508
0.239398, -0.190401, 2.86003
2.03492, 1.21452, -3.84525
-0.974785, -4.52543, -4.08135
-0.991825, 6.51288, -7.69377
0.818779, 1.08286, 1.52822
-0.504816, -3.69515, -3.75813
-2.99498, 0.880112, 4.60857
0.234033, -0.26715, -1.76315
0.837414, -0.414809, 1.05211
0.644999, -2.08348, -3.37629
-4.83301, -3.49971, -9.0203
-0.560821, 2.4698, -6.62335
2.7579, -1.04438, -6.22723
-1.40779, 0.711075, 4.10335
0.534131, -0.419344, -5.52343
2.43271, 1.5137, 3.51404
1.12917, -3.61888, 5.75724
2.9199, 0.869778, 2.60134
0.241307, -0.917938, 2.84213
1.6068, -1.0796, 1.78667
0.897253, 1.64084, -3.43112
-4.69336, -0.11823, -1.54396
-2.20868, -1.88338, 0.624749
0.244809, -5.04282, 2.48381
4.47116, 2.29694, 2.50186
-1.32837, -2.52251, 2.22496
0.394095, -0.361198, 1.72177
-2.89402, -5.87958, -3.36214
-0.539541, 0.853277, -2.31452
-1.41384, 1.31123, -3.60383
0.0894465, -0.227035, -1.4055
5.6907, -0.591674, -2.79874
3.22656, -0.934864, -5.70056
-1.80184, 0.726771, 2.89268
-4.14647, 0.390041, 7.0471
-1.27707, -0.558607, 3.40325
3.99194, 0.145939, 0.820955
-2.80152, 3.61173, 4.04577
3.18964, -0.714298, -2.86771
0.979007, -0.48441, -2.43257
-0.834122, -0.0786999, 0.867714
-3.74463, 5.12357, 3.47643
-4.45234, 0.49372, 6.55385
0.687294, 0.183923, 1.42025
1.98905, 1.90705, 5.371
0.113032, 1.60307, 1.74627
-2.96127, 4.21373, 2.64526
-4.12043, 0.18241, 2.8887
-4.08271, -2.4536, -2.29686
0.17005, 0.710649, -0.69862
4.91387, -0.687343, -3.26097
-0.54055, -0.112417, -3.34699
1.32907, 0.387625, 1.18805
-6.34982, -3.36012, -3.39151
0.620647, 1.82602, -1.7968
0.00192147, 5.1688, 4.04513
-1.58027, 1.48415, 1.9309
-2.57538, 0.999305, 1.72503
-2.98983, -0.00925916, -2.95866
-1.58705, -2.1529, -5.19255
2.0671, -0.0189186, -4.39744
2.44309, 3.14047, 5.51919
-2.63121, 1.19173, -4.6783
-0.0023953, -2.27358, -0.869073
-3.26531, 4.69448, 4.554
-0.772172, -0.629818, 3.9718
-0.933712, -0.41932, -6.46711
0.609237, 1.86935, 1.69071
-2.36098, 0.410018, 1.73687
4.16279, 0.660641, 3.04687
3.92859, 1.30087, 3.64203
1.75718, 0.0814147, -4.37536
-2.89529, -3.03719, -5.6273
-0.238653, 0.253099, -2.27105
3.32245, 2.53422, -3.63079
1.71233, -1.48207, -3.03283
0.135944, 3.81601, -2.47736
-0.0723993, 3.01019, -4.11487
-1.14751, -0.440132, -3.29764
2.8034, 1.49137, -2.54753
-3.57285, 1.02009, -3.32738
0.622888, -0.674702, 1.1816
0.138462, 2.29129, -4.77492
1.39879, -2.19012, -1.08815
2.19895, 0.208426, 2.62905
-0.516317, -1.28429, 1.58396
-0.0569238, 1.42944, 2.38589
1.13917, 0.849817, -2.48339
-6.55799, 3.01433, -2.89525
-6.10374, 0.836126, -1.83126
-0.342362, -0.236422, -3.37824
0.455667, -2.30906, -4.70701
2.27573, 1.62152, -5.40513
-0.537774, 1.3856, -4.91783
-1.95838, 1.08242, 2.00163
2.15467, 3.1803, 8.49499
3.38764, -2.30501, -2.62403
-2.5993, -1.13413, -4.87441
0.732102, 3.63779, -3.49588
-1.54531, -3.17325, -4.95396
-4.51493, -2.54219, -7.05159
-0.932144, -0.789949, 4.31087
0.110116, -2.6981, 7.17704
-2.26677, 1.04919, 1.56802
-2.71204, 0.783312, 1.44315
-6.03581, -1.4533, -4.75398
1.15137, 5.00641, -2.53397
-1.21224, -1.32557, 6.45044
4.18276, -2.65317, 3.39195
-2.32097, 1.34482, 4.35454
0.403902, 1.96904, 0.847153
0.279683, 2.1258, 1.05177
1.2256, 1.73168, 3.74015
1.35962, -1.57471, 2.41215
-1.15749, -4.81899, 2.87204
-1.81075, -0.792351, 3.23367
-1.30845, -2.14016, 1.10821
-3.0219, -0.419381, -4.37837
-2.26354, 0.878522, 3.84084
1.05349, 0.867539, -2.07982
1.68582, 0.332653, -0.73078
1.70127, -0.123264, 0.997102
-2.49244, -0.281531, -4.72696
-2.71074, -1.45674, -4.91366
0.117076, -1.14525, -3.41525
-3.34013, 1.49584, -1.29121
4.38168, -1.45462, -7.18426
-0.603767, 2.01994, -2.49709
0.635284, -1.786, -5.67196
-1.3284, -0.774956, -1.55157
-1.38712, -1.72746, 4.81029
-1.69602, -1.4339, -3.34146
-2.26963, -5.84167, -3.90507
2.53327, -0.583051, -6.2679
-0.506789, -5.16601, -5.06421
1.19468, 0.735475, 5.40839
-0.348417, 0.0441736, -3.72127
-1.96927, -8.24708, -6.35573
5.23254, 1.15425, 6.12193
1.42755, -1.66823, 1.58878
-6.31466, -2.96074, 2.94848
-1.29215, 2.65523, -1.33648
-0.622241, -8.18719, -7.04668
1.48273, -1.74131, 2.67251
0.775543, 1.38436, 4.14744
-2.00654, 6.29749, 4.83768
-2.71948, -2.34571, 4.72151
-3.19754, 0.0120497, 9.29258
1.12014, 0.527231, 3.35964
3.7174, 5.89861, 3.93758
-3.63573, 0.229918, -3.90319
0.974949, 1.78381, -3.05028
-3.08402, 2.39357, 3.98488
1.99433, 2.23861, -1.57133
-1.42256, 4.14752, -6.54663
-0.100701, -0.247491, 3.37141
-1.1908, -0.74859, 3.16674
3.41747, 0.766223, -1.0553
-0.898993, -0.528249, 1.05143
-3.49928, 5.69066, 3.9486
0.899538, -0.429547, 1.55248
1.75678, -0.419145, 3.08589
1.42647, 0.58829, 5.22341
0.920437, -1.71475, 3.18825
2.19796, -4.34049, 3.30733
3.58103, -4.00501, 5.41115
-3.55872, -0.00340831, 3.97759
1.37806, 0.16633, 4.69949
-3.6084, -0.817269, -2.80185
4.03597, 2.49296, -2.437
-0.602894, -2.69026, -2.57433
3.12481, 2.39301, -5.8545
1.14546, 0.0855949, -1.01793
1.68243, 0.847928, 1.286
-1.43653, 2.07814, 1.12144
-2.26161, 2.40891, 6.23219
3.2479, 0.357642, 3.92959
-0.238498, -0.229765, -3.38468
-0.603776, 1.3832, 4.15397
2.19692, -0.65033, 3.07252
2.26889, -3.03065, 1.7663
2.54031, -0.953101, 5.12506
-0.576835, -1.26068, -2.76197
-1.42695, -3.86854, -4.67223
1.75935, 2.20526, -0.422288
-1.63941, 0.587477, -5.68607
-1.93377, -6.66174, -2.92491
-2.50711, 2.61445, -2.47339
0.0765695, -1.35154, -5.21907
0.585485, 1.62219, -3.41406
-2.24501, 0.297664, 2.17759
1.41182, 8.65804, 3.5417
0.0453301, 0.113548, -2.71837
0.830386, -1.26691, -4.97793
-0.656551, 1.19204, -6.86848
1.24071, 2.47662, 5.79186
1.34544, 1.19924, 3.61809
1.62899, 0.653333, 0.884365
0.183998, -0.732795, 1.46326
0.598993, 2.93849, -3.60732
1.58277, 0.800471, -1.27901
-0.495857, 4.04306, -3.31844
0.0512304, -0.48277, 3.12829
-1.6504, 2.93187, -5.9365
2.33908, -1.52198, -4.18226
0.826601, -0.511314, 2.0657
-5.6843, -0.776973, -4.99919
-4.37312, 7.00151, -1.9098
-4.89251, -1.41145, -2.36048
2.1116, -0.167121, 1.42481
-0.0626893, 3.01016, 5.67767
1.84696, -3.51178, 5.70213
-2.77449, -0.569249, 5.00939
-5.42508, 0.872034, -3.9557
3.90197, 2.02041, -1.69069
1.71687, -0.556471, -6.23367
-0.606676, -2.12586, -3.0375
1.18963, -2.02794, 3.87405
0.952039, -2.08872, 3.17665
4.0271, 1.43243, -2.20653
5.04352, 0.761172, -5.61038
0.528079, 1.43863, 2.96334
1.48205, -1.06651, 3.12433
0.944597, 2.39038, 1.70279
0.310318, -1.56001, 5.17141
0.823651, -3.32112, -3.48532
-0.298067, 1.03361, 2.80275
0.395727, 2.33204, 4.12757
-0.984434, -0.837307, 2.56883
-2.58498, 4.40103, -4.77402
1.81604, -6.55819, -2.1872
-1.79636, 0.187107, -2.89564
0.977977, 1.38427, -3.32467
2.22611, 5.54325, -6.00199
3.3475, 1.55755, -4.20634
0.127157, 0.539476, 2.75462
-0.478647, -1.1451, -2.90184
5.92547, -1.4872, -9.68205
-4.47712, -0.236286, 2.38117
-0.0563726, 1.22359, -2.16948
-0.6752, -4.4912, -0.836419
-0.751212, 2.32884, 3.76888
3.51144, 8.00674, -12.0103
-0.965918, -2.37716, 4.54101
4.08223, -4.18199, -4.79104
2.8194, -2.06687, -8.0897
1.71385, -2.73235, -3.8596
1.75564, 0.429625, -1.97476
0.0314142, -4.91169, 2.4189
0.801841, -2.00691, -1.64033
-1.79145, -0.646413, -9.99115
-3.61728, 5.23755, 4.39233
1.94113, -1.46787, 2.32166
-5.68334, 0.244141, 3.00774
-5.03543, 0.111633, -2.60435
1.91773, -0.467573, 3.30509
-0.185661, 0.736986, -3.58954
-2.12633, 1.40376, -2.51503
-0.82972, 1.15943, -4.21331
-0.582872, -2.09576, 6.17316
0.422628, 0.224823, 2.12042
-7.21042, 2.69771, 3.30656
-2.25059, 5.5065, -5.89995
-1.53313, 4.54638, 5.12697
1.06199, -0.929609, -1.38692
-1.64519, 1.80295, -5.4176
1.93854, 2.98287, -2.46086
0.0584208, -4.54445, 5.69654
-8.31229, -3.83308, 7.7305
2.39485, -0.662193, 3.94587
0.000640399, 0.382822, 1.6369
-0.760257, 3.33068, 2.10925
-0.867328, 0.736544, 1.37662
3.17924, -1.28359, 2.24763
3.00961, 1.33528, -4.05303
1.70836, 0.54314, -2.31966
-0.628391, 0.148233, -3.14462
-0.405491, 3.63952, -3.57943
3.8585, 2.02788, 5.38745
2.44817, 0.188788, 4.07557
0.519421, -1.18815, 2.66946
-0.22103, 0.0326864, -4.5387
1.018, 1.43837, -3.97922
1.28477, -0.299685, -2.58532
-0.248358, -0.877726, -3.8929
-0.903563, -1.24721, -5.64152
1.24586, 2.90542, -4.01976
0.610271, 3.97603, -1.69286
-0.146188, -3.03349, -2.55264
-0.226365, -1.47989, 2.89934
-1.59423, 2.00874, 4.76735
1.92944, -2.8274, 5.66464
2.7752, -0.0502159, 1.07332
1.90688, -1.67532, 6.69746
-0.210734, -1.84914, 5.17311
-1.93662, 1.4423, 3.94174
-2.30647, -0.751696, 1.92234
-3.84539, 0.149745, 3.50546
1.93917, 0.66338, 5.50097
-0.404614, -0.23339, 6.79784
4.85853, -3.52926, -2.85915
1.34297, 0.216791, -4.2881
2.81482, -2.82917, 3.83314
-0.656114, 0.310249, -1.32531
0.367554, -0.327043, -1.46382
-0.144224, 1.48647, 3.78757
-0.501983, 1.53797, 2.45133
2.78495, 3.13232, -5.51092
1.89794, -1.74736, -3.9381
-1.47001, 1.98843, -3.53545
-1.19221, 0.663506, -3.26854
-3.14874, 2.68657, -1.71734
1.5907, -0.730318, 1.84609
-1.42531, -5.76107, 3.19385
-4.81943, 0.738973, 3.84519
-1.89329, -1.74174, 2.39209
-0.67852, 1.07196, -3.81712
-1.97134, -3.45094, -2.13782
-1.84878, 0.401187, 4.30664
-0.715269, 0.0282231, 1.90752
0.313967, -0.180479, 2.65028
1.64636, 1.14733, 2.90453
2.87633, -1.28232, 2.37919
-1.80214, -0.67872, 5.81362
0.315503, 3.63451, -1.44502
-2.2521, 0.965077, -1.93764
-2.93375, 2.43471, -2.12726
2.46676, -3.1179, 6.70411
-1.91453, -0.448722, -5.05778
1.58579, -1.77657, -2.01555
1.54089, 0.737527, 4.77069
5.70445, 0.0559081, -3.20317
0.345163, 1.36132, 2.63937
