-0.537443, -0.222024, 0.43224
0.557046, 1.28199, 0.466738
1.02696, 0.0234533, -0.225306
-2.1045, -0.198994, -0.771722
-0.525932, 1.09795, -0.103997
0.679662, 0.218907, 0.014766
0.470024, -0.20749, -1.15148
-1.38408, -1.0583, 0.339965
0.514626, 0.83554, 1.57704
-0.514173, 1.26654, 1.16986
-3.0985, -1.37403, -0.176623
-0.352025, 0.570662, -0.914979
2.01059, -1.42335, 1.41682
0.12038, 0.412544, -0.594721
-1.8897, -0.400821, -1.18842
-0.0434191, -1.59129, 2.46101
-0.275806, 1.2367, 0.467435
0.342792, -2.26457, -0.674756
0.112035, -0.152333, -0.0388549
-1.21972, -0.0727667, -1.39164
-0.467933, -0.649134, 0.117943
-1.47211, 0.0464289, -0.0747114
0.223642, 0.483336, -0.318949
1.0591, -1.3554, -0.401204
-1.65791, 0.547464, 0.951533
-0.980438, -1.78295, 1.28788
0.0433231, -0.0267474, -0.123034
-0.116084, -2.23601, 0.941236
0.146556, -0.0582069, 1.23205
1.18956, -0.62112, 1.55858
-0.170532, 1.74954, -0.280054
0.0728693, 0.59493, -1.86912
2.73579, -1.07922, 0.036003
0.425799, 0.217066, -0.754927
-0.425885, 0.303448, -0.384515
-0.610695, -0.756283, 0.261158
-0.0111218, 0.779498, 1.72665
0.422889, 0.351362, -0.363692
0.413863, -0.171233, 1.29792
-1.23414, 1.48309, -0.87979
1.48716, -0.10674, 0.748273
-0.101538, -1.02737, 0.135339
2.1934, 0.722991, 0.450044
1.60992, -0.974188, -0.455884
0.424876, 0.013755, -0.167624
0.339427, -0.385778, 0.210624
0.795595, -0.120436, -0.835433
0.50906, 0.591986, 0.10016
0.587359, -0.34574, 0.136593
0.0902217, -0.375665, 0.0879948
-2.03976, 1.57939, 1.17298
1.19485, -0.522493, -0.979017
0.839015, 0.590129, 0.948475
0.267664, -0.0267673, 1.18449
0.461159, -0.886892, 0.173697
-0.331, 0.624861, -0.404141
0.879053, 0.545386, 1.0865
-0.357367, 0.245593, 0.590109
-0.0917308, -0.360512, -0.261298
1.33198, -0.76704, -2.94922
0.214442, -0.103377, -0.43272
-0.986385, -1.14805, 0.0252817
0.512156, -0.149728, 0.223217
-0.84152, -0.122778, -0.259471
0.986327, 0.10988, -0.524129
-2.46551, -0.119827, -0.418548
-0.621682, -0.413509, -0.790997
-1.20948, 0.137533, 0.567347
-0.828681, 0.322794, 5.7577
0.00422613, -1.92489, 0.476684
0.0972338, 0.123073, 1.07554
-0.834432, 0.688873, 1.40547
0.741294, 3.41333, -1.27793
0.266573, -1.52586, 1.86304
0.51516, 0.962849, -0.813399
0.341355, 1.0709, -0.335603
-0.0870566, 0.451497, -0.382452
-2.56788, -0.355932, -0.729965
-0.619227, 0.00614061, -0.833038
0.265929, -0.370828, -0.398336
0.704317, -0.703364, -1.07961
-0.386699, 0.214365, -0.56433
0.831976, -0.387151, 0.709997
-0.388238, 0.529414, 0.84365
0.347413, -0.306602, -1.93712
0.626562, -0.633415, 0.477837
-0.577106, 0.0982402, -0.143347
-0.809303, 1.03907, 2.1255
-0.282051, -0.0582815, 0.704259
0.411493, 0.338299, -0.849467
0.270926, 0.109132, -0.665418
0.184331, -0.471126, -0.151573
0.0647932, 1.11626, -0.336837
1.1572, -0.919879, -0.340615
-1.45464, 1.51093, 0.226188
0.191467, 0.0686675, 0.12412
0.373006, -2.0712, 2.41954
-0.402358, 0.185784, 0.729835
0.00427081, 0.134654, -1.10588
0.205123, -0.189916, -0.640893
0.318073, 0.572386, -0.33848
1.61453, -2.05431, -1.74501
-0.815289, 0.469613, 0.587159
-2.15338, 1.4297, -1.09923
-0.66268, 0.0398884, -0.577798
-0.646661, -0.194732, 1.29857
-1.6313, 0.00976924, 0.829643
0.0445294, 0.95361, -1.60294
0.925904, -0.769176, 1.08457
-0.213882, -0.319084, -0.0341392
-0.622358, -1.99664, -0.208019
-0.483244, 0.193226, 0.938452
0.622906, 0.0212519, -1.22342
0.593351, -0.0506714, 0.204939
-2.0315, -0.00990322, -2.4838
-0.895476, -0.497653, 0.155254
-0.496666, -0.0517596, -0.3331
1.43752, -1.03832, -1.63545
-1.24719, 2.14951, -1.89287
-0.0470928, 0.159941, 0.30327
0.172683, 0.511291, 0.716218
-1.00559, 0.623256, -0.426151
-0.533624, -0.273832, -0.388228
1.50012, -0.554641, -1.26451
1.2594, 2.03794, 2.13164
-0.447538, 0.194364, 0.755793
0.608778, 0.235463, -0.0502924
0.10916, 0.227132, 0.00738077
0.0362701, -1.14601, -0.277134
-2.92124, 1.16604, 1.83452
0.189959, -0.206244, -0.66808
-2.08639, -1.10471, -0.0566709
-3.49902, -2.80879, -2.12966
-0.397617, -1.17058, -0.0409246
-0.00217284, -2.18417, -0.450092
-0.0877192, 0.509627, 0.349862
1.51827, -0.594763, -0.30394
0.141957, 0.0255477, 0.225842
1.04991, 0.728917, -0.0552644
0.0516983, -0.000477095, -0.31801
-0.203331, 0.646643, 0.0565068
-1.99914, 2.09907, -0.311866
-0.362913, 0.161536, -1.09448
-1.1782, -2.05116, 0.527545
0.525793, 1.21671, 0.142869
0.376578, 0.262871, -1.18803
0.726423, -1.78381, 0.65402
0.446011, 0.813312, -0.224104
0.187464, -0.218594, -0.378505
0.74891, 1.30751, 0.189416
-0.29029, -0.0792255, 1.0563
0.628559, -0.39566, 0.692897
1.8463, -0.679137, -2.37634
0.838704, 0.676095, 0.885092
0.694248, -0.391589, 1.03671
-0.442625, -0.321047, 1.37097
0.784199, 1.1722, -0.692712
-3.62843, 2.21809, -0.932231
0.158527, -0.986206, -0.235457
0.522233, -0.234825, -0.604734
0.0981362, -0.161399, 3.05277
-1.13484, -0.536117, -0.962298
-0.508368, 0.0116697, 1.49571
0.102043, 1.51145, 1.14708
0.8023, 3.20363, 0.625292
1.47747, -0.258245, 0.533999
-0.457564, 0.992293, 0.00738031
-0.95415, 1.15426, -3.42571
0.238305, 0.332032, 0.426617
0.919477, 0.27263, -1.07031
-0.145334, 1.87449, 1.10906
-2.53058, -1.51192, -0.904373
-1.32554, -0.176006, 0.382667
0.405032, -0.0446564, -0.497514
0.13791, 0.739442, 0.973643
0.433533, -0.831819, 0.820057
-0.796841, 1.26496, 0.263244
0.210527, -0.102256, 0.216178
0.331552, 0.670014, -0.191433
-0.207174, -0.450796, 0.320221
-0.246686, -0.652375, -1.13003
-0.417951, -0.0468394, 0.413988
1.77383, -0.729582, 1.43707
-0.465431, 1.34926, -2.58759
0.750704, 0.970233, 0.541766
-0.14345, 0.388723, 0.942822
-0.755431, -0.129827, 0.443521
-0.28033, -0.556193, 0.394884
1.0807, -0.296738, 0.75815
0.811936, 0.994899, -0.236949
0.586526, 0.944285, 0.226423
0.579424, 0.0703186, 1.24153
0.304497, 0.219116, -0.594126
1.72532, 0.123134, 0.494778
-0.352561, -0.415491, -0.111465
-0.328999, 2.38115, -4.15794
0.827252, -0.963531, -0.303415
-0.061979, 0.110018, -1.3777
0.0390705, 0.526527, -0.886783
-0.141795, 0.0168636, 1.37906
0.323163, 0.218236, -1.28848
0.616646, 0.250051, 0.407708
-1.3529, -0.105371, -0.375953
-0.216643, -0.393215, 0.112899
-0.470325, -0.777432, -0.223504
-0.222258, 0.0891304, 0.786413
0.0592575, -0.396256, 0.657288
-0.0895134, -0.895884, 0.726407
1.11388, 1.85926, -0.752324
0.128836, 0.108755, -0.0154408
2.4037, 0.879473, 2.34723
-0.509233, 0.21328, 0.250779
-1.12863, 1.54416, -0.443307
-1.14604, 1.05871, 0.451027
-0.378973, 1.4432, -2.02195
-1.81399, 0.806928, -1.05145
0.3197, 2.00827, -0.45588
0.163414, -0.333382, 0.0176314
-0.618802, 0.139937, -0.817155
-0.0294586, -0.728963, -0.0918835
-1.08571, -1.68017, 0.406882
0.0928262, 0.0411883, -0.238854
1.80872, 0.387064, -1.88177
1.16686, 0.753004, -0.546258
0.315093, -0.443375, 0.0414961
-0.458687, 0.490639, -0.893002
-1.1727, -0.417189, -0.134392
-1.6433, -2.34674, -1.47754
-0.832277, 0.0868519, 1.2519
-2.01051, -0.590287, 0.986977
-0.872702, -0.195514, -0.0666964
-1.0782, -0.737759, 1.22264
0.791855, -1.24601, 2.41787
0.637472, -0.212809, 0.114831
-1.61344, -0.203329, 1.11427
-0.365727, -1.34574, 0.970061
-0.580935, 2.64496, 0.613104
0.447315, -0.242313, 0.210966
-0.0554977, -0.214249, 0.140371
-0.274351, -2.09339, 1.13544
-0.341502, -0.513158, 0.368483
0.161904, -0.681374, 0.884325
-0.425523, -0.858164, -0.417753
0.885211, 0.35063, -3.0646
-0.19606, 0.617885, -0.815272
-0.308129, -1.07831, 0.810516
2.49604, 0.566633, 1.8113
-1.87512, -0.487462, 3.20116
0.979103, -0.803758, -0.190892
-0.18044, 0.736876, -0.945828
-0.169754, -0.603286, -0.811548
0.671868, -0.241843, 1.36261
1.58565, -0.896026, -0.0259534
0.800874, -0.014939, 1.25105
-0.723081, -0.811183, 0.387703
0.374363, 0.516509, 0.119776
2.6017, 1.08902, -1.15883
0.920745, -0.240983, -0.0166472
0.0830444, 0.0696938, 0.11374
0.634005, 0.553713, -0.0719065
0.766667, -0.263077, -0.0507883
-0.340205, 0.0204696, -0.11603
0.0260405, -0.77372, 0.282781
1.16276, -0.262098, 0.249677
-0.0597333, -0.329647, 1.97672
-0.111344, -1.34995, 0.148359
1.06647, -0.300573, 0.394448
0.42884, -0.171289, 0.473168
0.251689, -0.199876, -0.279145
-0.345376, 0.220689, 0.376334
0.137016, 0.0101026, -0.765983
0.42435, 0.180561, -0.230299
0.201829, -0.0154085, 0.107183
-0.913397, 1.30182, -0.586022
1.34065, -2.75049, -1.57632
0.447362, 0.156152, -0.963913
0.548513, -0.0744192, -0.986824
-0.5125, -0.260736, 0.307687
0.507573, -0.175134, 0.125576
0.712291, -0.326774, -0.298903
0.0121702, 0.251956, 0.687954
1.14714, -1.25398, 0.950331
-0.865097, -2.07831, 0.393573
0.434708, -0.0602615, -1.02495
-3.70028, -3.95606, -2.27061
0.412799, -0.00530687, -0.301361
1.7201, -0.0829636, 0.0336241
0.293242, 0.958696, 0.890102
0.231428, 1.96263, -1.78306
0.857984, 0.482682, -0.702939
0.910693, 1.61679, 0.296467
-0.412398, 1.76855, -0.334876
-0.399943, -0.588219, -1.59681
0.547011, -0.204696, 0.621209
-0.176294, 0.609849, 0.380465
0.911201, -1.19882, 0.041868
1.74054, 0.98204, 0.0780354
-0.184036, -0.434765, -1.1214
1.9346, -0.448566, 0.843767
-0.262589, 0.324139, 0.158023
0.359036, 1.71575, -1.80199
1.43753, -0.431107, 1.14809
-0.867341, 0.430095, 0.315717
-0.0546023, 1.21756, 0.024847
0.0889389, 0.708572, -0.0276874
0.808571, -1.01367, 0.522409
-2.37349, 1.50632, 0.822555
-0.378985, -0.0959988, -0.820561
-0.0962729, 0.6294, -0.535566
1.13991, -0.363313, 0.363902
1.64347, 0.111581, 0.459128
-0.323105, -0.425775, 0.609371
-0.476351, 0.526223, 0.331748
0.0651224, -0.326679, 0.237199
0.196235, 0.0186863, 0.470708
0.16867, -0.562831, -0.518012
-0.133476, 0.524867, 2.06409
-0.0240986, 1.96004, -0.279436
0.870521, -0.717179, -0.974834
-2.12621, -1.03565, -0.990925
-0.638652, 0.810825, -2.0764
-0.142188, -0.437156, 1.29999
-0.8227, 0.24463, -0.282722
0.405441, -0.471769, 0.398726
-0.431518, 0.0826522, 0.124162
0.832417, -0.889802, -0.118881
-0.427447, 1.57723, 0.659929
-1.62452, -1.82751, 0.277904
0.127929, 1.24952, 0.127391
0.195696, -1.17847, 0.688668
-0.944105, 0.732512, 0.699642
0.632165, -0.0225925, 0.465301
-0.187672, 1.57324, -0.644751
2.64283, 0.564638, -0.679751
1.41618, -0.377026, -0.416249
-0.682901, -0.0811554, -1.00182
0.0802633, -0.191801, 1.25261
-0.352871, 0.204762, 0.419697
0.890268, -2.17275, -2.16411
0.597809, 0.343218, 2.3258
0.00706153, -0.677716, 0.44093
0.366522, -0.473956, 0.961837
1.5219, -1.16693, 1.1084
0.595484, -0.273022, 0.20536
0.41363, 0.780842, 0.663225
0.0288094, -0.510775, 0.457492
-0.945086, 1.65579, 0.0330312
1.44445, -0.222347, 0.440128
0.0850068, -0.977793, 0.510421
-0.757456, 0.198921, -0.969603
-1.56914, -2.53045, -0.389663
0.409118, 0.829584, -1.19367
0.409092, 0.57307, 0.845588
1.10403, 1.78417, 1.76396
-1.11805, 0.583383, -0.482683
-1.09446, 1.89023, -0.0454857
1.00696, 1.27801, -0.490821
1.49639, -0.583122, -0.377017
-2.57176, -1.15354, 1.42184
1.11051, 0.244436, -0.580224
0.190591, -0.261762, 0.259472
0.251312, -1.6575, -0.136913
-0.567117, 1.01814, 1.90034
-0.450146, 1.8045, 0.18772
0.680411, 1.1194, -0.649711
-0.0424181, -1.20736, 0.0210246
-0.749251, -1.95569, 0.6817
-1.44472, -0.225323, -0.251886
0.243178, -0.594708, 0.421399
-0.172728, 0.131488, -0.193229
-1.05406, -0.0412397, -0.0159363
-1.30789, -0.843964, 0.235646
-0.564904, -0.812086, -0.649073
0.782098, -0.999463, 0.43509
-0.873957, 0.94717, -1.46193
0.170121, -0.387259, 0.398304
0.383748, -1.54778, -0.53896
-1.00043, 0.578229, -0.566212
0.325028, -1.23972, -0.0279581
0.0159804, 0.295686, -0.0766627
-0.852735, -0.843865, -0.908306
0.325446, -0.755141, 0.80223
-1.08879, -1.93115, 0.873267
-0.346546, 0.654998, -0.586354
0.944415, -0.35119, -0.682978
-0.154238, 0.0544972, -0.41635
-0.0982408, 0.972401, 0.194846
1.00378, 1.90646, -0.306314
-0.264479, -0.012579, -0.0414468
-0.142605, 0.165345, -0.191878
0.435377, 1.02306, 0.728323
-1.02784, 0.402111, 0.0438561
0.743877, 1.14078, 0.649764
0.371626, -0.447377, -0.983702
-0.320159, 1.58303, 1.5637
-0.298371, 0.134048, 0.500956
-0.228495, -2.03792, 0.487831
-0.326385, 0.890661, -1.34086
-0.968001, 0.935648, -0.352378
-0.440113, -0.766771, -1.30584
-0.711619, 0.862584, -0.645349
0.0496819, 0.195054, 0.77943
-0.530632, 0.195053, -0.59083
-0.340642, 0.215422, 1.66724
1.15911, -0.450159, 1.14845
1.06882, -2.13971, 0.783323
-0.903184, 0.00855122, 1.29336
-1.07252, -0.6255, 2.38552
-0.644758, 0.227507, -0.334531
-0.403599, -0.435487, -0.261341
0.872941, 0.384673, -2.80117
-1.67934, -1.00908, 1.32172
0.292202, -0.828048, 0.178741
-1.0432, -0.504801, -0.179469
-1.06762, 0.344264, 0.2004
-0.496599, -0.250453, 1.09677
-0.554822, -1.67643, 2.27471
0.753595, 2.10035, -0.974823
0.89925, -1.2882, 0.343191
-0.649556, -0.742571, 2.80247
-0.173768, -0.640528, 0.24057
-1.84902, -1.47898, 0.447877
0.256063, 0.239328, 0.906983
3.10335, -1.55191, 2.48695
0.104437, 1.25186, -2.23079
-0.499675, 0.631264, -0.0937796
-0.058381, 1.60184, 0.827808
0.461265, 1.39802, -0.70156
-0.838373, -1.05498, -0.0526625
0.0418525, -0.0242753, -0.514189
0.300488, -0.263247, -0.190589
-0.231256, 0.630299, 0.56657
-0.0909223, -0.579662, -0.0340282
1.10882, -1.36315, 1.55789
-0.464189, -0.715192, 0.0758488
0.0182823, 0.154412, -0.799986
0.12186, -1.06399, -0.582663
0.628749, 0.355705, 1.12053
-0.183493, 0.0367955, 0.471987
-0.00888517, 0.807022, -1.57512
-1.43269, -0.111534, -0.0746001
-0.996538, -0.795039, 0.190363
1.85956, -0.124789, 2.51701
2.88821, 1.67855, 2.26627
1.9329, 1.50018, 0.344727
1.03196, -0.215379, 1.52698
-0.525124, -0.476091, -1.69394
-0.645541, 1.05725, 0.491838
0.778445, 0.475007, 1.15202
0.705467, -0.315138, -0.243252
-0.767781, 1.07954, 0.205226
-0.331616, -0.543856, 1.17498
-0.494593, 0.332905, -0.586588
0.209264, 0.178756, 0.563469
0.241367, -0.0604606, 0.125303
-1.34373, 0.853421, -2.8217
0.209985, 0.297873, 0.449586
-0.437942, 0.668742, 0.329259
-0.716301, 0.347476, 0.300207
2.06895, -0.390566, -0.215486
0.691587, 0.528676, -0.31803
-0.0124924, 1.58052, 0.1356
0.428095, -0.106542, 0.0377833
-2.37784, -0.257535, 1.225
-0.471621, 0.110558, -0.55351
-0.656036, -0.19268, 0.0785819
-0.557493, 0.447752, 0.390519
1.24309, -0.59798, 0.590773
0.443509, 0.0801615, 1.00524
2.21024, -0.626259, -0.709209
0.453387, -1.01373, 1.17395
0.393656, 0.679245, 1.39253
0.253787, -0.625926, -1.12788
1.28372, 1.01993, -1.06867
1.28734, -0.571862, 0.773836
-0.648313, 0.0225377, -0.573819
0.392945, 0.557935, 1.74737
1.3789, -1.85432, 3.71296
-0.0988874, -1.03125, 1.09597
0.054938, 0.63867, -1.52042
0.743891, 1.3698, 2.25493
0.778728, -0.142495, 0.182117
0.371233, -0.973869, -0.286675
0.671695, 0.100689, 1.1236
0.512364, -0.625494, 0.500014
-0.930948, -0.422366, -0.355823
-0.153036, 0.6741, -0.861831
1.38604, -0.0122656, -0.0274066
1.09863, 1.83039, 1.16279
-0.536039, 0.0132324, -0.495918
-1.97023, -0.418437, 0.326915
0.677936, -0.640643, 0.313926
0.457168, -0.15402, -0.350247
-0.546907, -0.176699, -0.0836076
0.894426, -2.04854, -1.34576
0.88381, -0.347063, -0.385952
1.63306, -0.0598923, -1.40987
0.377505, 0.0453451, -0.021215
0.550279, -0.952176, -0.580011
-0.612199, -1.08127, 0.609108
-0.830332, -0.507268, -0.936475
0.0987623, 0.28803, 0.840502
0.415127, -0.0736279, -0.58344
0.862341, -0.0182857, 0.757298
0.491218, 0.178505, -0.0947439
-0.0706975, -0.692697, -0.139628
-1.38384, -1.18888, -1.04732
-0.24299, 0.621641, -1.05805
1.90916, -0.237142, 0.912985
-1.9973, 0.858029, -0.222833
0.509439, 0.761429, -0.294508
-0.592525, -0.72562, 0.103296
-0.995409, 0.626502, 0.602446
1.50502, 0.0944836, -0.0710763
1.85228, 1.52941, -1.76004
0.630726, -0.467021, -2.75831
-0.736067, 0.668234, 1.83196
1.11131, -0.260879, -0.239155
-0.0723473, 0.98505, -0.792161
1.10664, 0.419483, 0.577525
0.125086, -0.10553, -0.367272
2.1351, -1.94219, 1.46631
-0.90326, -1.55882, 0.312652
-0.492821, 0.819214, -1.05786
0.260287, 0.631796, -2.31956
-0.198396, -0.947287, -0.00889563
-1.04579, -0.942882, 0.586441
-0.19136, -0.146773, -2.71063
-0.614167, -0.25984, 0.039097
0.141894, -0.693661, -0.886223
0.451479, 0.45584, -0.432514
0.00344876, -0.26661, 0.0609012
-1.48277, 0.955074, -0.866766
0.281147, -0.376162, 1.60155
1.37704, -0.0583286, 0.234013
0.858726, 0.206871, 0.247642
-1.29493, 2.14892, 0.680713
-1.09898, 0.196667, -0.988771
-0.453196, -0.827079, 0.324465
0.248952, 0.227947, 0.741242
-1.6309, 1.88791, 1.46246
1.04437, 0.642341, -1.513
0.462564, -1.11035, -0.636834
0.404706, 0.150002, -0.727243
-0.613072, 0.525245, -0.345512
-0.545349, -2.73228, -1.05171
0.72662, 0.959476, -0.489935
1.11399, -1.66385, 0.255296
-1.63077, -0.35511, 0.215379
-1.24422, 1.81582, -1.18856
0.207343, -0.112357, 1.22816
0.0111876, -0.111529, 0.44024
-1.41417, 1.99688, -0.493118
1.56251, -0.0832843, 0.975715
-0.71752, -0.161095, 0.0262794
-0.0464633, 0.809474, 1.38551
0.33908, 1.3633, -0.845639
-1.67689, -0.906023, 0.191595
-0.384742, 0.630651, -0.488328
0.423015, 1.95315, -0.780748
0.886095, -1.18839, 0.323346
-1.4719, -1.8478, -0.887284
-1.15679, 0.121228, 0.853757
-0.813388, -1.31048, 1.15238
0.29183, -0.341142, -0.488567
0.716436, 0.427522, 0.048885
-0.413511, 0.305566, -0.53142
0.651822, -1.29977, 1.21438
1.09179, -1.12401, 0.650096
-0.703345, 1.06761, 1.60129
0.921435, 0.747816, 0.0992465
-0.273722, -0.733712, -0.506155
0.0245151, -1.48331, -1.05915
-0.255962, -0.188647, 0.319257
0.395826, 1.18908, 0.303586
-0.833035, 0.967409, 1.09116
-1.38186, 1.14364, -0.704997
-1.77702, 0.584963, -0.808453
0.469167, 0.17916, -0.0402334
0.0944573, -0.0575854, -0.155465
2.10199, -0.223184, -0.445954
-0.356213, -0.904056, -0.650122
-0.73029, -0.814037, 0.77832
0.904726, 0.360465, -1.32946
-0.806406, -0.799664, -0.325719
-1.12836, -0.789184, 0.620797
-0.124967, -1.57889, 1.5175
0.271568, 0.382568, 0.0239837
0.478582, -0.542746, -0.582477
-0.0470591, 0.12505, -1.29677
-1.75397, -3.35472, -2.92837
-1.01577, 2.713, 0.605217
-0.581636, -3.79358, 2.02241
-0.0875046, -0.0406676, -0.110063
1.07238, -0.303745, 0.769531
0.572952, -0.488587, 0.493901
0.446501, 0.157413, -0.45515
0.920847, -3.40305, -0.353162
-0.217652, -0.713829, 0.992956
-0.510775, 0.654086, 0.815921
-2.09915, 0.411746, -0.783341
-0.271084, 1.18879, 0.705362
1.47874, -2.42017, -0.142839
-0.64472, -2.19456, -0.886856
0.384906, 0.987979, -0.472214
0.610062, -0.228962, -0.927321
0.588034, 0.420408, -0.83019
-0.0604259, -1.37247, -1.65593
1.15487, 0.290303, 1.60417
1.40288, -0.0375237, -0.5841
0.0410418, 0.518504, 0.467468
-0.406309, -0.0422947, 0.49138
0.742501, -0.117811, -1.39658
0.312844, -0.23547, 0.345841
-1.56422, 2.35585, -1.7433
-1.20963, 0.13062, -2.64666
-0.241303, 0.148085, 0.548682
-0.631333, -0.265907, 0.132255
-0.121295, -0.929527, -0.335021
0.290724, 0.0767829, -0.528712
-0.0735921, 0.0597515, 0.754824
-0.389601, -0.372756, 0.0505056
0.695715, -0.227686, -1.00492
0.176439, 0.592019, -0.000914612
-1.27191, 0.934607, 0.391193
1.15257, -0.166244, 0.017601
-0.238109, -0.421637, -1.55736
-0.635234, -0.406641, -1.95685
0.459848, -0.428738, 0.12233
-0.721401, 1.94876, -0.0328855
-1.42511, 0.598037, -1.28479
0.969731, 0.962202, -0.621443
-0.365382, 0.941381, 0.750564
0.229324, -0.134908, 0.980046
-0.351795, 0.770215, 0.154352
0.177221, 0.438343, -0.433985
-0.0688129, -1.24935, -0.202291
-0.194416, -0.185946, -0.867317
-1.35755, 0.0271671, 0.553417
0.528804, -1.18108, 1.30438
-1.26223, 0.0132375, -0.188169
-0.392654, 0.548401, -0.126067
-1.7649, -0.19645, 1.06344
0.674235, 0.348198, 0.784834
-1.45334, -0.998406, -0.782409
0.50505, -0.923131, -1.16404
0.297422, -0.231272, -0.0588857
0.38198, -0.255011, 0.657697
-0.642338, 0.579821, 0.292422
0.230064, -0.802652, 0.291211
-1.11505, -0.684363, 0.110775
0.177419, -0.589057, -0.527625
0.497195, -0.0184933, 0.548725
-1.00767, 0.604683, 0.244189
-0.672813, 0.330184, -1.44727
-1.22382, -0.632022, 1.49956
0.0259688, 0.807003, -0.0521155
-0.164863, 0.800406, 0.925327
0.134361, 1.36687, -0.908679
-0.51527, 2.38451, 0.805977
-1.28081, 0.805947, -1.09169
0.147304, -0.962282, 0.711997
0.331031, -0.346852, 0.768714
-0.643154, -0.26947, -0.409566
-1.65322, 0.262771, 0.45887
0.287288, 0.169501, -0.375607
1.03623, -0.775867, -1.7852
-0.438177, -0.392005, 0.214833
-1.35424, -1.44154, 4.10887
-0.0822648, 0.77517, 0.0646739
1.30695, -0.109487, -0.80725
-2.06832, -0.0535918, 0.917147
0.766734, -0.383802, -0.267502
1.3076, 1.43644, -0.591356
-1.88109, -0.549554, -1.19073
-0.746752, 0.412684, -0.0946927
-1.65073, 0.729829, -0.577519
-0.955544, 0.2858, 0.466355
1.75117, 0.422626, 1.43028
0.590644, 0.891608, 0.294485
-0.0450086, 0.293675, 0.768257
0.801962, 0.0887047, 0.22778
-0.249082, 0.0852286, 0.871658
-0.477542, 1.1542, 1.19071
1.17701, 0.883459, 0.965982
-0.305232, 0.719257, 1.09913
-0.450968, 0.0153074, 0.484795
0.594797, 0.719042, -0.547456
0.7519, -0.0291493, -0.215684
1.36563, -0.567264, 0.857921
0.50434, 0.453525, 0.334234
2.08813, 3.00848, 0.648684
-1.12613, 0.110626, 0.184577
-0.944013, 0.88084, -0.539406
2.00039, 2.05347, -0.49155
0.377488, -1.48439, 0.126533
-1.3888, 2.14597, -0.439114
-0.613248, 0.123181, 1.54054
0.429669, -0.951495, 0.650566
-1.4192, -1.50641, 1.26587
-0.139418, 0.29651, -0.760591
0.562956, 0.103013, -0.729108
-0.787399, 0.0185989, -0.699979
1.42719, 1.21788, -0.606456
1.10432, -0.0162038, -0.67093
0.369828, 0.85108, -1.1576
-2.13377, 1.95469, -2.80585
-0.0605454, -0.465815, -0.555561
1.34841, -0.744917, 0.278171
-0.706066, 0.433023, -0.368626
-1.8047, 0.375285, 0.394412
0.413266, 0.25879, -0.260572
0.849785, 0.488199, -0.0929992
-0.948742, -0.468961, -0.719658
-0.127059, 0.15789, -0.824131
-1.03031, 0.267502, -0.0571248
0.584833, 1.08348, 0.386591
1.15363, -0.900659, -2.00819
-0.118138, -0.439567, 0.872468
0.326723, 0.125072, 0.423371
-0.476865, 3.55629, -0.671709
0.181396, -0.54454, 0.624619
-0.118969, 0.17446, 1.11476
0.462228, -0.938469, 0.541145
0.522861, 0.128219, 1.8664
0.356471, -0.675349, -0.228253
-1.11689, -0.495873, -1.03281
1.29464, -1.60312, -0.841623
0.110345, 0.960784, -0.0933078
-1.83035, -0.0190284, -3.27598
-1.72169, 0.243702, 0.13866
0.680665, -0.150481, -0.480544
1.58613, 0.432361, 1.21422
-0.966554, -0.534089, -0.0200102
0.355869, -0.784809, -0.864491
-0.135194, -1.25679, 0.427752
-0.227844, -0.788913, 0.24391
0.651418, -2.24282, -0.39355
-1.15482, -0.441188, -0.172475
-0.0954297, -0.98587, -0.898729
-0.508408, -1.30229, 0.448966
0.0464328, -0.0935428, 0.60835
0.720001, 0.0117933, -0.223509
0.0709122, -0.56685, 0.718315
1.57552, -1.56813, -1.35044
-0.6496, -0.370259, -0.0655002
-0.362299, -0.346029, -0.496292
0.556709, -0.0495472, -0.411877
-0.910749, 0.99961, 0.849014
0.186169, 0.32505, 0.296947
-0.0592206, 0.914684, -1.27165
-2.72939, 0.707346, 0.719949
-0.0468459, 0.503876, -0.0416207
0.124966, 2.41326, 1.00786
0.301486, -1.64928, -0.245593
-0.696628, -0.867983, 0.684845
-0.349548, 0.896355, 0.794705
-0.471626, -0.365614, 0.111388
-0.792385, 0.750922, 0.646223
0.890026, 0.618856, 0.72661
1.42828, -0.598165, -0.563179
0.134967, 0.339737, -1.34694
0.673613, -1.07236, -0.281931
-1.21115, 0.239934, -0.0260867
-0.206513, 0.684019, -1.59321
-0.993515, -0.563466, -1.68256
0.749262, 0.241977, -0.523712
-0.258997, -0.824477, 0.727348
0.198772, -0.243705, -0.629355
-0.205929, -1.39902, -0.858298
0.34727, -0.549178, -0.837986
-0.782202, 0.0564298, 0.0446982
0.638638, -1.12856, -3.51464
-0.0952625, -0.98504, 0.792579
-0.801667, 1.3528, -1.4365
-0.225948, -0.495991, -2.28179
-2.15178, 1.97136, -0.846914
-0.102994, -0.233936, -0.656987
-1.50205, -0.501408, 2.23514
-0.272218, -0.0133174, -0.217659
0.25396, 1.34618, 0.892947
1.27355, -0.532836, -0.0796065
-0.871101, 0.864185, -2.74457
1.55362, -0.588908, 0.016625
-0.157608, 1.1863, -1.53008
1.31852, 1.47778, 0.679437
0.210266, -0.393042, 0.905315
0.25766, 0.333384, -0.442686
-0.568248, 0.327854, -0.882827
-0.386172, 0.772932, -0.244313
0.476795, 0.617073, -0.652904
-0.317094, 0.161729, 0.0177149
1.34782, 2.9488, -0.571909
-0.603218, -0.00512064, 0.944158
-0.253516, 0.339695, -1.73177
-0.58488, 1.13164, 0.317158
-1.6162, -0.0990058, 0.53543
-0.199004, -0.646803, 0.0259742
-0.115619, -0.144157, -0.546287
1.00683, 0.281745, 0.4671
-1.29567, 0.142207, 0.506698
0.137953, -1.00963, -0.526407
0.498033, 0.74191, -1.27713
0.563244, 0.201634, -0.810746
-1.21995, 0.351849, -2.40523
-0.0478384, 0.275864, 0.453612
-2.98168, -0.553404, -0.266031
-0.519083, 0.624544, 0.633031
1.63514, -0.458072, -0.160005
-0.380589, -0.167669, 1.39457
0.327175, -1.13172, -1.7933
0.190113, 0.688, 1.48715
-0.750798, 1.34281, 0.950638
0.530642, -0.168391, 0.461273
1.40844, -0.889636, 1.38256
-0.932596, -0.510364, 1.68624
-0.375269, 0.0939674, 0.129843
-0.151665, -0.0790212, -2.01175
0.0152445, 0.0853385, 0.255193
-0.727211, -0.871362, -0.680055
0.726272, 0.46313, 1.80507
-0.19727, 0.045521, -0.278441
0.892719, 0.107034, 1.44643
0.660167, -1.58331, 2.64802
-3.02405, 0.345294, -0.0639134
-4.27079, 0.655068, 1.72143
1.34763, 0.282552, 0.827859
0.422386, 1.74539, 1.59732
-0.275364, 0.883084, 0.194988
0.0539968, 1.09216, -0.572474
-1.89905, 0.16257, -0.64383
-0.626296, -0.357699, -0.346962
0.657782, 1.06814, -1.20499
0.0304489, 0.635589, -0.0715807
-0.708237, -0.189308, -0.582247
0.607199, 0.303346, -0.629607
-0.22604, -0.229898, 0.0177727
0.758094, -2.0561, -1.30111
0.958702, 0.0545392, -0.192502
1.31594, 1.29123, -1.54513
2.25117, 0.25834, 0.0549966
-0.571827, 0.252592, -0.345834
-1.32298, -1.8604, 1.06906
0.333708, -0.995768, -0.543097
0.932848, 0.238225, 0.759725
0.335836, 0.537649, 1.77123
1.44612, 1.06907, 3.18845
0.497514, 0.207416, 0.925784
0.47406, 0.258993, -1.17466
-0.610472, 1.86854, -1.25243
-0.224922, -0.6355, 0.0865842
0.889828, 0.564686, 0.993073
1.38506, -0.0149306, -1.46168
-0.439159, -0.610852, 0.28813
-0.783247, -0.892158, 2.42295
-0.593163, -0.338885, 0.866298
-0.189371, -0.741367, -0.54971
-0.300385, 0.914625, -0.532654
2.92261, -0.431941, -0.0335988
0.536225, 0.777237, 0.0611795
1.08906, -0.979177, 2.47361
-0.857747, 1.85384, 0.130309
1.66775, -0.673329, -1.1017
0.355946, -0.0500809, -0.692091
-1.20664, -1.00814, 0.789204
-0.0358953, -1.25049, -0.949441
-0.636599, 0.399173, 0.99245
0.528774, -0.55244, 0.21692
-0.133708, -0.71211, -1.64927
-0.213107, 0.975951, 0.305145
1.29571, -0.0147714, 0.168291
-1.24151, 1.24568, 0.805456
-0.217595, 0.504285, -0.0771949
1.01569, -0.975905, -2.71655
0.673428, -0.657099, -0.298957
0.386669, -0.39733, -0.231572
1.65468, -0.00824503, 0.670464
1.11609, -1.0803, -0.951784
-1.04748, -0.140711, 0.136779
-1.01613, 1.16127, -0.338853
2.01391, 1.49748, -0.443378
0.663914, -0.16808, -0.289076
-0.0760002, -0.300759, -0.118548
0.0352401, -0.100458, -0.26767
-1.44997, -2.61489, 0.65534
-3.467, 0.706075, -1.28992
0.0717007, 0.437486, -0.36968
-0.0275561, -0.718221, -0.533132
-0.617013, -0.0939296, 0.55955
0.0717585, -0.845552, -2.24347
-0.0188985, 0.60843, 0.218114
-0.167286, -0.340824, 0.188675
-0.0199417, -0.118655, -0.541624
-1.68786, -0.876536, 0.516174
-0.520887, -0.981584, -0.197042
-0.026031, 0.635012, 1.13777
0.0403758, -2.8704, -1.32004
-0.235112, 2.04439, 0.661934
-1.22999, -2.01326, 0.681726
1.04634, 1.18846, 1.62262
-0.608656, 0.0574527, -0.641766
-0.221757, -0.457196, 0.0164911
0.327154, 0.562776, -0.83785
-0.185783, 0.171365, 0.108092
1.00266, -1.65333, 0.0981386
-0.0699572, 0.0678556, -0.434905
-0.687681, -0.906082, 0.41933
0.554829, 2.19357, 0.448318
-0.29659, 0.284586, -0.390882
0.926642, -0.603229, -0.00664433
-0.233636, 0.284067, -0.547682
-1.35525, 0.873255, 0.599502
0.926149, 2.07713, -1.37502
-0.375095, 0.253825, 1.83527
1.30087, 0.464461, -0.0687037
0.10442, -1.30792, -0.0547154
0.230538, -2.36663, 1.36398
-0.239228, 1.2349, 1.43222
0.473768, 0.459814, -0.268506
1.78385, 0.238211, 2.03671
0.288904, -0.858932, -1.05009
-1.33031, -1.55193, -1.55877
-0.754472, 0.492036, 0.135924
-0.991906, 0.439746, -0.263015
1.01598, 1.39337, 0.670017
0.158588, -0.239473, -0.347993
0.472401, -0.49548, -0.0462544
0.0299835, 0.942755, 0.534718
0.0113462, -0.671226, -1.85848
-1.1819, 0.796811, -0.665963
0.240174, 2.18839, 0.127371
0.656747, -0.774081, -1.49784
-0.873361, 0.0921959, 1.59078
0.984355, -1.52245, -0.00462424
-0.13285, 0.242841, -0.476378
-0.903248, -0.359916, -0.981672
0.0330692, -0.203195, -0.52195
0.0924137, -2.4356, -0.358567
-1.04767, 1.0686, -0.12568
-0.168346, -0.33966, 1.46113
-0.845106, -0.309594, -0.190487
0.592861, -0.117771, 0.0288927
-0.283896, -2.75364, 0.0270315
-0.668296, 0.233075, -0.851198
0.252868, -0.430522, 0.00661472
-0.997598, 0.798723, 0.312149
0.142326, 0.277849, 0.333667
0.482865, -0.551807, 1.03186
-0.0257974, 0.0660894, -0.441647
0.561058, -0.383958, -0.351376
-0.753271, 0.693722, -0.228761
1.70517, 0.128599, -0.585191
-0.508349, -0.246476, -0.0686259
0.328182, -1.08489, -0.0195854
0.59263, -0.88261, -0.620539
-1.47756, -2.91881, -0.109492
1.0187, 2.01394, 0.518582
0.429342, 0.219841, -0.181896
-1.36965, -0.00380856, -1.89353
1.2543, 0.633695, -0.583163
0.173792, -2.66332, 1.20339
-0.178993, -0.366998, 0.761865
-0.600049, -0.680822, -1.01449
-0.144054, -0.250043, -0.315354
0.566536, 0.847321, -0.0358706
2.61709, -2.32126, -0.344043
-0.352647, -1.04607, 0.293098
0.614993, -0.369109, -0.0628878
0.0426663, 0.764196, -0.953377
-0.754908, -1.46767, 0.390401
-0.786449, 0.24401, 0.625159
0.557005, 0.485397, -0.28465
1.12293, -0.672925, -0.300138
0.2005, -0.0950007, 0.174992
-0.814324, 0.0957103, 0.660843
0.362823, 0.215018, 0.211258
0.333469, 0.662332, -1.26845
-0.110027, -0.897861, -0.813527
-0.0767183, -0.124135, -0.676689
1.75677, -1.16466, 1.50861
0.0805579, 0.564455, -0.439042
2.04476, -0.569966, -0.555432
-0.010404, 0.802647, -1.83234
-0.950838, 2.18527, 0.787037
0.162136, 0.437882, 0.986554
-0.674073, 0.0755019, -0.604235
-0.809654, -0.978459, 0.0445861
-0.482557, 0.914129, 0.449418
-0.290928, -0.556589, 0.972892
0.0715519, -0.965022, -0.132823
-0.144925, -0.897166, -1.5677
-0.648022, -0.713748, -1.233
0.086935, 0.050449, 0.170792
1.7552, 0.526365, 0.159871
0.346715, 1.95505, 0.186355
0.756116, -0.167408, -0.552453
-2.449, -1.26254, 1.341
0.824706, -1.3429, -0.68944
1.03896, 1.27914, -0.0730154
-0.0741626, -0.923494, -0.210169
0.0940222, -0.124525, 0.485811
0.566602, -0.724637, 0.841173
0.161399, 0.751247, -1.00608
1.9613, 0.617794, -0.196734
-0.163543, -2.38362, 1.75299
2.08837, -0.00985063, 0.804973
0.254175, -0.0248155, -1.37726
0.372995, 0.177361, 0.0903265
-1.58915, 0.376295, 2.18237
-0.101421, -0.280538, 1.0545
0.275301, 0.782042, 0.63119
-4.27189, -1.65904, 1.3094
0.081554, -1.2477, -1.43522
-0.0915069, 0.209269, 0.701741
1.21205, -0.421446, -0.486038
-0.518279, 0.356202, 0.897144
3.08574, 2.23204, 1.2006
-1.31573, 0.713406, -0.641014
-0.0363795, 0.582717, -0.160117
1.05058, -0.900081, 0.396545
1.08027, -0.769321, -0.304984
0.388124, 0.903227, -0.0194178
-1.67217, 0.224846, -0.0688748
1.50398, 0.454122, -1.32109
0.658783, 0.194396, -1.75279
-0.525708, 0.0572575, 0.774551
-1.13159, -0.88283, 0.626833
0.897752, -1.40113, 1.43226
-1.1013, -0.882127, 1.11424
-0.118528, 0.106796, -1.18179
1.45977, 1.88261, 1.57991
0.969354, 1.21389, -0.221751
-1.21156, 1.25729, 1.63269
-0.322311, -0.160913, 0.012692
1.38976, -2.25236, -0.0446075
-1.09736, -0.91868, 0.44698
-0.435806, 0.821957, 1.16994
0.86016, -0.499125, 0.883072
-0.284987, -1.15837, 0.347189
1.0025, 0.608369, 0.871827
-1.32993, -2.27894, 0.00149267
0.469486, -0.851842, -1.26782
-0.742827, 0.224743, -0.557665
0.557508, -0.371847, -0.795201
0.298834, 0.908339, -1.24624
1.28798, -0.26524, -2.02211
0.372937, 0.630576, 0.288875
0.1416, -0.348568, 0.49714
-0.62677, -0.689367, 0.274718
-0.877567, -1.08642, 1.5689
-0.789151, -1.20999, -0.196956
-0.553255, -0.0302053, 0.0766518
1.16521, 1.9697, 0.668576
-0.806404, 0.556964, 0.363479
0.760239, -0.505443, -2.14153
0.486269, 0.632323, 0.817278
-1.04039, -0.412053, -0.0176917
2.00019, -0.0716341, -0.703879
1.65212, 0.945275, 1.73145
0.100035, 0.914672, -0.294895
0.962932, 0.731771, -0.0107847
-0.0788871, -0.971314, 1.95299
-0.828135, -0.78059, 1.09616
0.313903, -1.08323, 0.0516931
0.563906, 0.047739, -0.225001
0.880872, 1.37089, -0.35275
-0.96971, -1.93933, 0.462899
-0.600042, -0.0542766, 0.0500362
0.366993, -0.0843837, 0.501455
0.129734, 0.429398, -0.0540314
-3.45785, -1.72073, 0.635316
0.763906, -0.405692, -0.921486
-1.25105, 0.0870673, -0.819586
0.541613, -0.727821, -1.17533
1.2102, 1.90499, 0.933276
-1.19349, -0.0285615, -1.34671
-0.521694, 0.415678, 0.334743
0.249664, 1.20604, -0.0426779
1.87085, 0.909061, -0.27078
-1.42419, -0.39295, 0.727405
-0.947528, -1.05817, -0.688943
-0.702034, -0.0720385, 0.0297315
-1.45502, -0.264899, -1.75607
1.01234, -1.09933, -0.610923
0.210623, -0.447758, -0.0659754
0.923948, -1.44582, 0.192725
0.611248, 0.201364, 0.573635
-0.503395, -0.747352, -0.811143
1.27391, -0.0963955, 0.593492
0.0496932, 0.0163031, 0.0607036
-0.93288, 1.49562, 0.572965
0.109783, -0.720147, -0.0681151
0.768063, -0.642652, -1.4302
-0.00906828, -0.305426, 0.965943
0.321826, -0.933544, 1.15418
0.538607, -1.04154, -0.891326
-0.00216035, 1.3384, -2.4643
-0.753851, 0.065277, -0.503685
0.478209, 0.222454, 1.47125
1.07013, -0.0820654, 0.255112
-0.127553, -0.46711, 0.803679
-0.175283, 0.937135, 1.48905
0.179662, 0.434408, 0.428962
-1.69841, -1.28506, 1.18719
0.229996, -0.708224, 1.25368
-0.00705757, -0.0707523, 0.652979
-0.631364, -0.74204, 0.774335
0.0261726, 0.183302, 0.365753
-3.09633, 1.17368, -1.02725
0.176667, -1.69302, -1.38271
0.438536, 0.00786113, -1.41263
1.99552, -1.27788, 0.635688
-1.19561, 0.16905, -0.73044
-0.309689, 1.06041, 0.630012
-0.232002, -0.0228261, 0.663432
1.52636, -0.0054547, 1.38283
1.41732, -1.36219, -0.480113
1.0694, -0.926987, 0.509138
-0.633266, -1.16323, -0.0163168
0.196033, -1.92101, 0.229635
-0.0382984, 0.501436, -0.212099
-0.480316, -0.0624203, 0.222871
0.681591, -1.29414, -2.06833
0.0966994, 0.73841, 0.233034
0.488686, 0.587313, 0.789796
0.0504135, 1.40811, -0.175805
1.15605, -0.230752, 0.970442
0.414354, 1.1518, 0.213867
-0.285718, 0.261636, -0.459434
-0.489135, -0.861128, -1.4567
-1.34929, 0.428411, 0.127271
-1.85171, -0.789553, -1.18778
-1.10127, -0.481898, 0.0156694
-0.12239, -0.0140395, -0.726089
0.228573, -0.214478, 0.306408
0.649265, -0.743076, 0.492247
-0.754869, -0.02927, 0.00570727
1.11841, -1.46259, -1.95786
-0.115982, -0.580702, 0.279877
-0.16661, 1.37464, -1.37474
0.583172, -0.615767, -0.420221
-0.596002, 0.345529, 0.533426
0.500311, -0.54757, -1.11049
0.219518, -0.935663, 0.28074
1.09817, 1.11219, -0.729175
-0.203816, 1.30021, 2.10296
-1.56101, -0.855382, 0.892593
-1.66278, 0.0964916, -1.39768
-2.10816, -2.26761, -0.531697
1.55143, 0.307532, 0.408371
0.551924, 1.12643, -0.352424
0.134793, 0.578164, 0.139771
-0.492243, 0.19959, -0.0991824
-1.23524, -0.474991, -0.105291
-0.890341, 0.796285, -1.48638
-1.48301, 0.542387, 0.665517
-0.253473, -0.119198, 0.151858
-1.52813, 1.5345, 0.715871
0.332313, -0.378794, -0.161089
0.380698, -1.38493, -0.234945
1.6172, 0.57595, -1.34491
0.59689, 1.00573, -0.577036
-0.455834, 0.439393, 0.962173
1.86637, -0.390927, 1.12295
1.34008, -0.637363, 0.614859
-0.0230557, 0.164658, 0.493592
0.0108678, -0.412207, 0.631955
1.50958, -0.62566, 1.97759
-1.42035, 0.670751, -1.88775
0.330916, -0.785442, 0.604272
0.484487, 0.117763, 2.22476
-0.838014, 0.426134, -1.89629
-0.107355, -0.752606, 0.315597
-1.15488, -0.115903, 0.173844
-0.202714, 0.572621, 0.404815
0.011028, -0.515113, -0.492673
-0.58794, -0.52277, -1.03039
0.106339, 0.867085, 0.0980027
-0.443996, -1.28733, -0.34091
-0.44626, 0.115298, 0.49882
0.659578, -0.680172, 1.08541
-0.409122, 0.861176, -0.683385
-0.218067, 0.0552911, -1.17022
1.22763, 0.420033, 0.916838
-0.465203, 1.45723, 2.13988
0.712539, -0.192839, -0.476162
-0.34722, 0.864892, 0.792306
-0.605873, -1.30452, -0.844895
0.60829, 0.722121, 0.201907
1.37324, -0.901439, -0.875951
-0.317741, -1.15366, -0.526742
-1.28648, 0.031583, 0.0405674
-1.67248, 2.33279, -0.801246
0.362572, -0.404605, 1.74736
-0.329425, 0.810149, -0.620912
-0.883697, 0.90629, 0.550148
0.513336, 0.909179, -0.790808
0.31141, -0.562221, 0.0761978
2.40958, -0.178134, 3.36579
0.256806, -1.83065, -1.08702
-0.521322, -0.951549, -0.680316
-0.512988, 0.319383, -0.066428
1.40309, 0.280305, 0.735453
-1.37581, 1.25678, 0.239819
2.9133, 0.606433, 0.147839
-0.55833, 0.52017, 0.786423
0.0642997, -0.948169, 0.220761
1.16478, -1.30692, 0.439791
-0.641358, 1.10537, -0.241762
-0.169712, -0.987506, 0.122733
-1.3485, -0.1366, -0.0080996
-0.465516, 0.349435, -0.176217
0.202184, -0.199662, 0.613291
-0.891129, -0.587157, 0.135081
-0.678831, -1.8654, 2.20343
0.0131652, 1.20366, -0.975708
-0.537325, -0.127984, 1.11397
0.167864, 0.295277, -0.194596
0.571518, -1.60082, -0.497887
0.529125, 0.184418, -0.0365634
-0.598648, -1.12026, -0.349291
0.93257, -0.520776, 0.588418
1.07189, -0.274967, -0.558696
0.26893, 0.05457, 0.291024
1.56747, -0.482599, 0.263412
-0.130588, -0.849357, 0.52337
1.18829, -0.669587, 0.158067
-0.887892, -0.258526, -0.379683
-0.970122, 2.00411, -0.597571
-0.628329, -0.880469, 1.19357
0.274459, -1.47639, 0.633476
0.274326, 1.33008, 0.0274253
-1.10159, 0.105394, 0.176639
0.351317, -0.0272119, -0.685277
-0.139204, -0.374334, 0.19735
-0.756213, 1.05602, -0.379075
0.94158, -0.866331, 1.64877
-0.573498, -1.46974, 0.599885
-0.166462, -0.0876432, -0.0194509
-0.135219, -0.0330015, -0.315854
-1.95497, -0.488398, 0.234429
-0.823307, 0.520392, -0.69213
0.807527, 0.0614746, 0.0767162
-0.250582, 3.57943, 1.05883
0.636067, -0.649947, -0.99933
-0.15031, 0.520383, -0.324007
0.698397, 0.961957, 0.681978
-0.836797, -0.547139, -0.234185
-0.418072, 1.46492, 0.516928
-0.317701, -0.949369, -3.16419
-0.693163, -0.279895, 0.230247
0.0239824, -0.655259, -1.16847
0.399378, -1.77132, 0.25482
0.703988, -0.179265, 0.76105
-0.513601, 0.339086, -0.874057
-0.809532, -0.155642, 2.41347
0.338746, -0.796198, -0.288426
1.99717, -0.655077, -0.748979
0.902845, 0.915889, 0.922961
1.30877, -0.68766, -0.663751
-0.374028, -0.46729, 1.57726
-0.692264, -0.0391643, -0.0913262
1.36639, 1.3337, 0.322986
0.759929, 0.140943, -0.832474
0.010032, -0.488991, 0.00278287
-0.204261, -0.117059, -1.29897
-0.361835, -0.164042, -1.39317
0.00275504, -0.262111, 0.399734
1.70353, 1.68126, -4.22312
0.519748, 0.902262, 0.408439
-0.25454, 0.276009, -0.160407
-1.37237, 1.6671, 1.37699
1.5573, 0.904653, -0.262276
0.244631, 0.175221, -0.168937
-0.0863687, 0.287856, -0.592736
0.332654, -0.413025, 0.44451
0.741058, -0.502464, -0.303033
-1.5928, -0.69679, 1.22096
-1.94552, 0.327166, 0.0582013
-1.08814, 0.760523, -0.992558
0.240903, -0.732098, -0.31375
0.630022, -0.292524, -0.949183
0.276106, -0.429382, 1.46731
-0.101345, 0.0378479, -0.104369
-0.35661, -0.149405, -0.0523536
-1.11445, -1.61734, -0.78848
-0.0386725, 0.336556, 0.363079
1.72696, -1.06494, -0.768351
0.781807, -1.15807, -0.129663
3.35679, -1.10529, 0.496047
0.677478, -0.236709, 0.434482
1.39697, 0.843188, 1.59372
3.55775, 0.191575, -0.46101
-0.0889357, -0.175071, -0.520028
0.22032, 1.23387, 1.2491
1.56493, -0.270911, -1.01227
3.62561, -2.81394, -2.2156
-0.479564, -0.116215, 1.25112
0.416922, 0.780165, -0.162052
0.925626, 0.0906313, -0.889401
-0.375615, 0.280495, 0.134362
2.31426, 0.700373, 0.221378
1.05001, -0.743529, 0.772006
-0.317243, -0.268099, -0.518785
-2.14205, 3.34253, -1.86227
0.408408, 0.341729, -0.137669
1.26558, 0.691494, -1.62819
-0.897382, 0.552315, -0.919501
-3.23958, 2.83986, -1.60558
-0.386154, 0.39142, 0.519391
-3.1733, -0.857115, -0.108276
2.31715, 0.317643, -0.93336
0.246744, -0.186203, 0.548061
0.791508, 1.12036, -1.05389
-0.125832, 2.04998, -1.17324
0.191795, -1.33698, -0.46393
0.442059, 1.2923, 0.305586
-0.552035, -0.21687, -1.16246
1.05221, 0.610978, 0.903942
0.537922, -0.715867, -1.24571
-0.304116, -0.196204, -0.614039
0.816844, -1.2984, 0.438781
2.51931, 1.13981, 2.33009
-0.265605, 0.76372, 0.286129
0.00593573, -0.540086, -1.29918
0.333462, -2.92301, -0.817476
0.29247, 0.1744, -0.764476
-1.60095, -0.270078, 0.837211
-0.465696, -2.12623, -0.94711
1.83927, 1.61407, -0.134935
0.0643472, -0.412003, 0.83133
1.22271, -2.04905, -0.0291237
-0.174623, -1.35045, -0.217467
-1.04949, -0.344847, -0.0110117
-0.356209, 0.291753, -0.242448
-1.76338, -1.0974, 1.27414
1.1745, -0.790601, 0.268973
0.938823, 0.0815932, -0.901419
0.456945, -0.815224, -0.265722
1.47195, 0.785619, -0.362165
-0.72067, -0.488324, 0.0473141
1.13782, 0.157, -0.110325
1.87057, 1.20702, -1.19703
0.915608, 0.603511, 0.0677044
-0.333613, -0.710455, 0.319569
-0.918879, -0.0569864, 0.00826223
1.76658, 0.803837, -0.0139957
-1.66621, -0.811773, 0.908294
0.446163, 0.346278, -0.0923914
-0.410256, -0.586029, 0.501451
-0.121005, -0.495908, -1.36026
0.883658, -2.40257, 1.02585
-0.534158, 0.246311, 0.776375
-0.22022, -0.552443, -0.384648
-0.867886, -1.39787, 1.22639
0.381221, -0.201873, 0.165137
0.101697, -1.10233, 0.0683763
1.04769, 1.04373, -0.294861
1.58793, -0.0899703, 0.577758
0.279133, 0.334614, -0.385285
-0.990952, -0.352214, 1.20042
-0.565052, 1.50736, -0.0981901
-0.00449382, 0.293897, -0.262012
0.99321, 2.08452, -0.405133
-0.715371, 0.817415, 0.327679
-1.95109, -0.204534, -0.678577
-1.17087, 0.239525, -1.21896
0.0971302, -0.361556, -0.482504
1.59471, -0.346628, 0.937742
0.133268, 0.271886, 0.214529
-0.422055, 0.519479, -1.15601
-1.31076, -1.12638, -0.0827527
0.454415, -1.99124, -0.0782608
1.3006, 0.444051, -0.907515
0.91042, -2.08973, -0.518201
2.1622, -1.27785, 1.38027
-0.141429, -1.13492, -0.129194
0.0474082, -0.440823, 0.932829
0.372165, 0.0121106, -0.186032
-1.86322, 1.02602, -1.42049
0.993362, -0.307802, -0.200772
-0.365982, -0.534374, -0.945258
-0.199635, -1.41096, -0.524004
-1.86923, 1.43121, 1.01223
0.599632, -0.0346636, -0.104173
-1.20722, -0.257398, -1.13313
-0.456782, 0.0794767, -0.267869
-0.299897, 0.718889, 2.11612
-0.203089, 0.485377, 0.623809
0.00695549, 0.470296, -0.0482403
0.457276, -0.708009, -1.50452
0.354554, 0.533961, 0.139207
1.94577, 0.362744, -0.0619426
-0.4803, 0.508629, 0.157873
0.0544427, -0.0119212, 0.452537
-0.460149, -1.58607, 0.244482
0.953283, -0.0717386, 0.0358605
0.371607, -0.427494, -0.0765573
0.501323, -0.0190049, -0.0255205
0.808113, 1.47178, -1.10682
0.435561, -0.0377234, -0.85469
-0.376131, 0.441812, 0.491368
0.60782, 0.594362, 0.521387
-0.27412, 0.0648187, -0.248549
-0.527351, 0.327521, -1.24194
0.00587946, -1.85091, 2.33274
1.38946, -0.45068, 0.556258
-3.13722, -0.77737, 2.05436
-0.59141, -0.16273, -0.132562
-0.347033, 0.632623, -0.498382
-1.37566, -1.57446, 0.99563
1.17073, -0.106047, -0.0674756
-0.894383, -0.989006, 0.0542074
1.66619, 0.557644, 0.907279
1.14173, 2.01356, 1.78718
0.514324, -0.730035, -0.551505
-1.29706, 1.84612, -0.23437
-1.67022, -1.76724, -0.719271
1.29358, -0.249834, 0.183907
0.560398, 0.130867, -0.994028
-0.539939, 0.235894, -0.338563
0.832283, 1.32057, -1.76411
-0.151755, 1.06149, -0.939691
0.840835, 0.0355478, -0.941066
-1.06554, -1.14438, -0.147664
0.0224769, -0.339803, 0.269294
-0.247037, 0.0973214, 0.689442
0.747248, 0.392857, -0.0252307
-0.439896, -0.0997529, 0.245305
-0.179967, -0.527327, 0.699708
1.00019, 0.12614, -0.462758
1.86691, -1.58518, 0.365534
-0.0305104, 0.199478, 0.15533
-0.63349, -1.8159, -1.40506
3.15743, -0.440012, -0.321864
1.69248, 0.486383, 0.257912
-1.00579, 0.948446, -1.91683
0.39994, 0.0592667, -0.926521
-0.681177, -0.201217, 0.359681
0.0591037, 1.13838, 0.670715
-0.858374, 0.656853, -0.190517
0.0504168, 0.287937, 0.0880424
0.123543, 0.671593, 0.45717
-2.10448, -1.35487, 0.332932
-1.23152, 2.40024, 1.45109
0.818571, -1.59393, 3.4893
-0.577424, 0.722185, -0.685102
-0.0170437, -0.550067, 0.286975
-1.34572, -1.48831, 0.437792
1.38787, -0.227589, -1.58407
0.113652, -0.646192, -1.4807
0.938539, -0.190688, -0.379108
0.156902, -2.76536, -1.40914
0.178236, -0.989168, 0.338813
-1.38066, 0.383069, -0.0518107
0.704414, -1.76959, 1.63302
-1.99197, -0.237086, -1.03129
-0.115061, -1.49708, -0.403655
0.18496, -0.869867, 0.443566
0.0656837, -0.14833, -0.119137
0.763766, -0.299534, -0.99988
-1.1152, 1.14065, 1.67231
-1.23185, -1.44658, 1.13618
-1.3423, 0.252587, -0.788788
-0.134194, -0.0392993, -0.103207
-0.179731, -0.21626, 0.266787
0.170856, 0.755343, -0.544135
0.279258, -0.642028, -1.19122
-0.821184, -0.188961, 0.314111
-0.810171, -0.83598, 0.284931
0.420514, 1.41648, -0.204671
-0.123593, 1.8886, 1.0495
-0.825486, -0.238342, -1.07048
1.43726, 0.723666, -0.768855
-0.0667844, -0.503984, 0.645729
0.0634839, -0.0192985, 0.223065
-0.212375, 0.460604, -0.249844
-0.0368925, -0.498586, 1.30194
-1.01493, 0.651775, -0.670656
-0.452173, 0.290589, 0.247873
0.0215816, -1.29978, -1.24484
-0.332216, -0.335741, -0.138387
-1.33821, -0.0851109, -1.3046
1.20853, -0.889996, -0.796107
1.27796, 1.81872, 0.996612
-0.457844, -0.0165156, 0.021419
0.109146, 0.319193, 0.479118
0.663571, -0.871656, 0.347787
0.215399, -0.972105, 0.396588
-1.14137, 1.01134, -0.057023
1.56123, -0.909535, 0.187979
2.98679, 0.182414, -0.523623
-0.724042, -0.252568, 0.607241
0.699029, -2.55433, 0.757146
0.160075, 0.949193, 0.277896
0.618395, -1.02408, 0.11216
-1.18706, -0.396608, -0.25164
-1.46393, -3.22566, -1.32894
-0.303223, -1.31097, 0.831476
-0.190773, -0.126532, -0.0363563
-0.526162, 2.04914, -0.136566
0.201671, -0.95505, -0.235462
0.350811, -1.06603, -0.259258
0.614248, -0.270085, 0.385751
-0.0239591, 0.615333, 0.507112
-1.11294, -1.02814, 0.495014
-1.68551, -1.37742, -0.761302
-0.141135, 0.229965, -0.0157986
-0.131876, 1.09446, -0.497727
0.929068, 0.500313, 0.207611
-0.665393, -0.64068, 0.367264
-0.430371, 0.0530011, -0.141981
-0.0766254, -0.283897, 0.803777
0.278319, -1.04129, -0.562955
-0.292561, -0.142308, 0.00462201
-0.326151, -1.63004, -0.211394
0.452473, 0.778975, -0.450287
-0.38198, 0.0430591, -1.61051
0.272937, 0.205554, -0.513522
-0.580466, 1.77341, -2.7743
1.61099, 1.26336, -0.721425
0.494087, -0.46567, -1.19943
2.05593, -0.520536, 1.5489
-0.940842, 0.630611, 0.0704705
-0.922784, -0.829723, 0.627323
0.0760172, -0.987202, -0.727157
-1.52302, -0.549178, 0.909345
0.446234, -0.386912, -1.00548
1.19601, 0.793161, 0.905284
0.262905, -0.604907, -0.867228
1.02163, -1.0771, 0.653675
-0.059208, 0.217054, 0.888578
-0.100592, 0.608047, -1.92964
0.328322, 0.267573, 0.773999
-0.370112, 0.217975, -0.794724
-0.540667, 0.257289, -1.41638
-0.201323, -0.419852, -1.08815
0.279852, -0.435304, 0.805756
0.0878735, 1.27419, 0.583616
2.87473, 2.18382, -1.56544
0.838021, -0.337789, 1.56107
0.180455, -1.81541, -0.362537
-1.33873, -1.3515, -0.229179
-0.908142, -0.677299, -0.556554
0.503333, -1.50139, -0.547432
0.231711, -0.12173, -1.05339
-0.129219, -0.101756, 0.100022
1.1443, -1.10592, 0.517773
-0.413391, -1.4716, 0.779803
-0.0638201, -0.287252, -0.768831
1.17124, 0.552089, 0.780888
0.375889, 0.921673, 0.234943
-0.204685, -1.9222, 3.28062
3.38502, -0.76508, -0.296088
-0.0573835, -0.424868, -0.789524
0.0927951, 0.776189, -0.963154
-2.97873, -0.536199, -0.338776
0.995917, -0.88152, 0.650128
-0.542683, -0.638149, 0.102187
-0.158683, 0.6411, 0.460053
0.445822, 1.08349, -1.7257
0.468388, 0.444663, 1.77091
0.151652, -2.53802, 0.321451
-0.154555, -0.405019, 0.0652541
0.890175, -0.443111, -0.404796
0.847313, 0.110127, -0.182519
0.335349, 1.4536, 0.31813
0.120656, 0.0421508, 0.486349
-0.289084, 1.13603, 1.27082
1.03933, -0.401731, -0.0673775
0.706223, -0.75498, 0.30445
-0.689969, 0.826532, 0.496456
0.406469, 0.0986485, 0.156049
1.07948, -0.203583, 0.437486
-0.771925, -0.906928, -0.0965512
0.141313, 0.301787, 0.591513
-1.3895, 0.102511, -0.132975
0.174435, -0.127506, -0.507069
-0.444058, 1.82476, 0.545325
-0.224332, -1.68258, -1.54512
-0.937137, -1.08043, -1.40879
-0.730365, 1.83455, -0.260057
-0.0616559, 1.37821, -0.170437
0.117212, -0.907241, -0.0160073
0.196663, -0.843853, 0.110314
-1.27893, -1.33047, 1.05573
-0.373886, -0.0263264, 0.38001
0.594675, -0.503101, 0.522167
0.657278, 0.436952, -0.201961
-0.0211525, -0.0343172, -0.71155
0.138772, -0.871691, 0.615083
-3.20882, -0.724706, 0.461533
-0.204213, -0.63518, -0.500564
-0.0703342, -1.30451, -0.0876069
-0.861413, -0.519955, -0.360784
0.0742958, -2.73623, -1.33685
0.178632, 0.0426011, 1.55732
-0.320401, -1.05865, 0.360662
1.27303, -0.369516, 0.46185
-1.75316, -1.82399, -0.139254
0.0920282, 0.608003, 0.433536
0.511398, -0.297362, -0.975009
-0.350301, -0.0319605, 0.510985
-1.76425, -0.179698, -1.39605
-0.0746878, -0.393366, 0.258621
0.0829433, 0.858838, 0.943419
0.982942, 0.0798882, -0.233577
0.653841, -1.64513, -0.238753
0.501422, -0.389224, -1.1678
-0.730083, -1.06309, -0.116678
-1.18578, 0.879305, -2.08735
-0.740997, -0.783649, 1.39634
0.551208, 0.153828, -0.303333
0.298533, -0.137003, -0.59278
